ply
format ascii 1.0
element vertex 1310
property float x
property float y
property float z
property uchar red
property uchar green
property uchar blue
end_header
-0.428268 -0.002961 -0.354582 0 255 0
0.546960 0.014702 -0.047406 0 255 0
0.446720 0.028447 0.504413 0 255 0
-0.285935 0.199911 0.378158 0 255 0
0.307414 -0.586608 -0.408651 0 255 0
0.359990 0.404726 -0.315448 0 255 0
0.158152 -0.859086 -0.228735 0 255 0
-0.353345 0.593570 -0.326057 0 255 0
0.379622 0.203209 -0.302849 0 255 0
0.424150 0.504639 0.284994 0 255 0
0.174196 -0.619015 0.510337 0 255 0
-0.400917 -0.080609 0.421724 0 255 0
-0.553998 0.339955 -0.210054 0 255 0
-0.136355 0.335925 -0.530012 0 255 0
0.019005 0.687424 -0.068617 0 255 0
-0.179864 0.115572 -0.578944 0 255 0
0.107579 0.024899 -0.678894 0 255 0
0.509285 -0.140626 -0.272832 0 255 0
0.461284 0.392099 -0.011832 0 255 0
0.078612 -0.347837 0.628984 0 255 0
-0.373196 -0.503053 0.462855 0 255 0
0.657139 -0.227068 0.024127 0 255 0
-0.129830 0.028893 -0.572812 0 255 0
0.175780 -0.430817 -0.531539 0 255 0
-0.090427 0.708657 -0.022170 0 255 0
0.530277 0.153507 -0.192153 0 255 0
0.052798 0.580256 0.343067 0 255 0
0.447339 0.341555 0.274306 0 255 0
-0.483631 -0.064947 0.180895 0 255 0
0.508691 0.299896 -0.158784 0 255 0
-0.303182 -0.499127 0.601547 0 255 0
-0.185814 0.308789 -0.519372 0 255 0
-0.472692 -0.586981 0.261826 0 255 0
0.384808 0.322333 -0.066399 0 255 0
-0.196051 -0.723645 0.419736 0 255 0
-0.349892 0.020026 0.413331 0 255 0
0.233575 -0.538341 -0.471038 0 255 0
0.059026 -0.268454 -0.583937 0 255 0
-0.526799 0.223260 -0.104494 0 255 0
0.111476 -0.676403 -0.396332 0 255 0
-0.217625 0.510222 0.147013 0 255 0
-0.385255 -0.564493 -0.344088 0 255 0
-0.470820 0.250400 0.077967 0 255 0
-0.061422 0.334212 0.537125 0 255 0
-0.330628 -0.061646 0.474491 0 255 0
0.649896 -0.069963 -0.110673 0 255 0
-0.480237 -0.586950 -0.103413 0 255 0
0.061257 0.101626 -0.687284 0 255 0
0.268113 -0.750324 0.182268 0 255 0
-0.609880 0.039427 -0.025764 0 255 0
0.539335 -0.630091 0.006339 0 255 0
0.501119 0.162566 -0.107019 0 255 0
-0.338090 -0.058318 -0.468563 0 255 0
0.441761 -0.126768 0.510294 0 255 0
0.315933 0.421757 0.458760 0 255 0
0.331926 0.731930 -0.060343 0 255 0
0.170215 0.477991 0.573846 0 255 0
-0.465045 -0.144208 0.477670 0 255 0
-0.082312 -0.894585 -0.155650 0 255 0
-0.101058 -0.685270 -0.421813 0 255 0
-0.558778 0.109525 -0.091675 0 255 0
0.117781 0.384827 0.561955 0 255 0
0.368703 0.228808 0.364541 0 255 0
-0.170949 -0.125418 -0.529034 0 255 0
-0.071927 0.650872 -0.342951 0 255 0
-0.129682 -0.714005 0.455631 0 255 0
0.612808 -0.333701 0.150575 0 255 0
-0.005066 0.304295 -0.527045 0 255 0
0.323162 -0.380195 -0.419012 0 255 0
-0.476935 -0.392872 0.366820 0 255 0
-0.437394 0.021405 0.293644 0 255 0
-0.218443 -0.703262 0.424459 0 255 0
-0.497530 -0.498118 0.236181 0 255 0
0.266069 0.640471 0.405184 0 255 0
-0.267490 0.347758 -0.504009 0 255 0
0.099811 0.585100 -0.334044 0 255 0
0.015993 0.528093 0.577715 0 255 0
0.183630 0.008584 0.594826 0 255 0
0.290249 0.579280 -0.030819 0 255 0
0.436002 -0.731172 0.049801 0 255 0
-0.294818 0.531065 0.105070 0 255 0
-0.521294 -0.337917 0.224474 0 255 0
-0.477541 -0.625806 -0.196215 0 255 0
-0.397489 0.144171 0.346644 0 255 0
-0.223864 -0.682703 0.441095 0 255 0
0.371339 -0.711903 -0.052707 0 255 0
0.323828 0.119044 0.519380 0 255 0
0.397963 0.255431 -0.169991 0 255 0
0.142738 0.263405 0.524438 0 255 0
0.621048 -0.118993 0.043492 0 255 0
-0.183958 -0.856629 0.174702 0 255 0
0.231128 0.485291 0.480496 0 255 0
0.481130 -0.379519 0.510396 0 255 0
0.051824 -0.800409 0.219282 0 255 0
-0.349086 0.138094 0.470405 0 255 0
-0.329878 -0.364867 -0.426972 0 255 0
0.269862 -0.581117 -0.391719 0 255 0
-0.507724 -0.259471 0.304393 0 255 0
-0.018265 -0.820904 0.347209 0 255 0
-0.299126 0.296713 0.260089 0 255 0
0.472978 -0.590951 0.276473 0 255 0
-0.051152 -0.383171 -0.523274 0 255 0
0.517736 -0.387940 -0.272229 0 255 0
0.225190 0.047085 -0.603080 0 255 0
0.551916 0.090669 0.086588 0 255 0
0.105333 -0.802633 0.090464 0 255 0
-0.157095 0.036537 0.604179 0 255 0
-0.202950 -0.856314 0.229769 0 255 0
-0.188404 -0.488793 -0.456176 0 255 0
0.247784 -0.756634 -0.186328 0 255 0
-0.292008 -0.024574 0.495431 0 255 0
-0.127469 -0.001279 0.572027 0 255 0
-0.188714 0.574356 0.076030 0 255 0
-0.595836 0.171965 -0.252360 0 255 0
0.026311 -0.436362 -0.506534 0 255 0
-0.082567 -0.873268 0.075279 0 255 0
-0.477085 -0.054041 -0.313576 0 255 0
0.226169 0.106613 -0.522583 0 255 0
0.503703 -0.100758 -0.218145 0 255 0
-0.525527 -0.553114 -0.023779 0 255 0
-0.098445 -0.769730 0.339624 0 255 0
-0.538049 0.014658 0.060639 0 255 0
-0.085796 0.420925 0.463276 0 255 0
-0.398995 0.271468 0.155873 0 255 0
-0.500882 -0.265376 0.164327 0 255 0
-0.092629 0.439987 0.487666 0 255 0
-0.416385 0.008107 0.339706 0 255 0
0.028956 0.433758 -0.471904 0 255 0
0.440774 0.548465 0.286979 0 255 0
0.087180 -0.873509 0.016891 0 255 0
0.607519 -0.212894 -0.092708 0 255 0
-0.281921 0.167036 -0.563927 0 255 0
0.512383 0.369330 0.183142 0 255 0
0.304740 0.428363 0.432091 0 255 0
0.535060 -0.025109 -0.172687 0 255 0
-0.174974 0.732139 0.309558 0 255 0
0.303542 0.076804 -0.535019 0 255 0
-0.233956 0.343469 -0.465343 0 255 0
-0.247086 0.626106 -0.106416 0 255 0
0.130610 0.641868 0.252825 0 255 0
0.275946 0.699753 0.203466 0 255 0
-0.166395 0.601824 0.395807 0 255 0
0.348072 0.509158 0.376701 0 255 0
-0.401156 0.333927 -0.346786 0 255 0
-0.519546 -0.487272 0.331554 0 255 0
-0.154290 -0.185026 -0.467290 0 255 0
-0.191332 -0.132336 -0.433972 0 255 0
0.525879 -0.105125 0.352857 0 255 0
0.275886 -0.777276 0.211227 0 255 0
-0.036998 -0.060998 0.625253 0 255 0
0.368104 -0.357653 -0.383431 0 255 0
-0.243942 0.403812 -0.530705 0 255 0
-0.539724 0.284791 -0.195524 0 255 0
0.543319 -0.037394 -0.184216 0 255 0
-0.500913 -0.522181 -0.146119 0 255 0
-0.275982 0.092076 0.471307 0 255 0
0.044861 -0.719583 -0.419559 0 255 0
0.132482 0.751663 -0.029919 0 255 0
0.360794 0.030441 -0.389152 0 255 0
-0.518983 -0.536855 -0.116840 0 255 0
-0.266817 0.257799 -0.514631 0 255 0
-0.214336 -0.752496 0.304342 0 255 0
0.482664 -0.528752 -0.218298 0 255 0
0.244788 0.470825 0.461447 0 255 0
-0.339165 -0.025606 0.475270 0 255 0
-0.348243 -0.102736 -0.379462 0 255 0
0.628502 0.023737 -0.166335 0 255 0
0.363415 0.679520 0.117339 0 255 0
0.606413 -0.118229 0.089640 0 255 0
-0.273587 -0.808182 0.037722 0 255 0
-0.284974 0.211998 0.342470 0 255 0
-0.498153 -0.329287 0.111490 0 255 0
0.382247 0.013075 0.466924 0 255 0
-0.106218 0.136949 -0.634233 0 255 0
0.528359 0.135933 -0.048869 0 255 0
0.063061 0.506097 -0.419011 0 255 0
0.401790 -0.527779 -0.417225 0 255 0
-0.231593 0.437676 0.332646 0 255 0
-0.091403 -0.829124 0.169430 0 255 0
0.245294 0.275378 0.465740 0 255 0
0.472955 0.181237 -0.144225 0 255 0
-0.410075 -0.000200 0.292160 0 255 0
0.500152 -0.568993 -0.294647 0 255 0
-0.425974 0.104977 -0.399931 0 255 0
-0.269240 -0.816872 -0.059602 0 255 0
0.067444 -0.499159 -0.478763 0 255 0
0.238410 0.485321 -0.350115 0 255 0
0.324973 0.505820 0.386376 0 255 0
0.214317 0.086570 -0.503754 0 255 0
0.340085 -0.806722 -0.005535 0 255 0
0.474322 -0.616729 -0.294555 0 255 0
0.496020 -0.556928 0.312256 0 255 0
0.565033 0.178043 -0.172851 0 255 0
0.310177 -0.454374 0.566957 0 255 0
0.188559 0.086162 -0.552330 0 255 0
-0.282064 0.186575 0.442799 0 255 0
0.024481 0.564528 0.442349 0 255 0
0.054138 -0.106158 -0.520716 0 255 0
-0.138889 0.626632 -0.151821 0 255 0
-0.618799 -0.111317 -0.042839 0 255 0
0.477314 0.018262 -0.162588 0 255 0
-0.263189 0.489961 0.186971 0 255 0
-0.336449 -0.600628 0.409378 0 255 0
-0.009482 0.399368 -0.456034 0 255 0
0.561654 -0.375719 0.323928 0 255 0
0.615469 -0.285165 0.224658 0 255 0
-0.527003 -0.425728 -0.061448 0 255 0
0.416142 0.455137 0.006477 0 255 0
0.489778 -0.201259 0.492581 0 255 0
0.436314 0.515078 0.043025 0 255 0
0.533812 -0.507398 0.282121 0 255 0
-0.292143 0.664917 -0.198671 0 255 0
0.166029 -0.811105 -0.166119 0 255 0
0.484287 0.434849 0.201859 0 255 0
-0.366717 -0.298742 0.474481 0 255 0
0.514643 -0.514313 0.349545 0 255 0
0.050890 0.733135 -0.072172 0 255 0
0.220403 -0.630527 -0.359576 0 255 0
0.441482 0.572532 0.154062 0 255 0
-0.274736 0.236818 -0.528270 0 255 0
-0.423770 0.179551 0.210772 0 255 0
-0.387444 -0.291003 -0.450664 0 255 0
-0.120623 0.292138 -0.544339 0 255 0
-0.520106 -0.516685 0.023837 0 255 0
-0.107361 -0.311553 0.639951 0 255 0
-0.362556 0.187602 -0.459730 0 255 0
-0.188703 0.010885 -0.499950 0 255 0
-0.473538 -0.087971 0.190476 0 255 0
-0.357065 -0.123734 0.494464 0 255 0
-0.186753 0.535821 -0.498195 0 255 0
-0.021586 0.788210 0.191589 0 255 0
-0.507642 -0.050380 0.409649 0 255 0
-0.468167 -0.579410 -0.100739 0 255 0
-0.236316 -0.767015 -0.238369 0 255 0
0.129255 -0.566630 0.585142 0 255 0
-0.329387 -0.006873 -0.515258 0 255 0
0.098576 -0.089334 -0.568580 0 255 0
-0.059598 -0.142859 -0.503015 0 255 0
0.277455 0.230554 0.430559 0 255 0
0.212292 0.304815 -0.456871 0 255 0
0.047725 -0.755828 0.408966 0 255 0
-0.406933 0.276442 0.145256 0 255 0
-0.167029 -0.764810 0.358383 0 255 0
0.072696 0.677355 -0.094683 0 255 0
0.022788 0.195941 0.542154 0 255 0
0.384572 0.621107 0.268983 0 255 0
-0.514243 -0.301359 0.230922 0 255 0
-0.032271 -0.597934 -0.583557 0 255 0
0.304590 0.232805 -0.373949 0 255 0
-0.468702 -0.574510 0.179229 0 255 0
0.198103 0.364027 -0.448768 0 255 0
0.407387 -0.688609 0.176883 0 255 0
0.572190 -0.083639 -0.016642 0 255 0
-0.482347 0.262896 0.140352 0 255 0
0.398849 -0.490201 -0.460906 0 255 0
-0.122095 0.342720 0.505899 0 255 0
0.220533 0.079051 0.563106 0 255 0
-0.468346 -0.591724 -0.070317 0 255 0
0.190238 0.183575 0.585607 0 255 0
0.154907 -0.755876 -0.223151 0 255 0
0.587658 -0.646699 -0.042265 0 255 0
-0.538547 -0.007341 0.228362 0 255 0
0.084175 0.573079 0.416324 0 255 0
-0.560505 -0.164012 0.018458 0 255 0
-0.094698 -0.641326 -0.421910 0 255 0
-0.161273 0.627354 0.133013 0 255 0
-0.412174 -0.431264 -0.355716 0 255 0
-0.402814 -0.231758 -0.426391 0 255 0
0.537276 0.001385 0.214939 0 255 0
-0.449925 0.027576 0.377401 0 255 0
-0.264405 -0.476855 0.580008 0 255 0
0.627376 0.006882 -0.153977 0 255 0
-0.187418 0.462840 0.438395 0 255 0
0.607734 -0.376634 0.094495 0 255 0
0.396012 -0.740250 -0.210274 0 255 0
-0.062838 0.505821 0.512078 0 255 0
0.277696 0.430490 -0.372808 0 255 0
0.311009 -0.681096 0.318289 0 255 0
-0.319502 -0.260541 0.510503 0 255 0
0.337725 -0.273252 -0.377231 0 255 0
0.333422 0.355801 0.395248 0 255 0
0.487513 -0.277909 -0.314018 0 255 0
0.047308 0.615899 0.403161 0 255 0
-0.074921 -0.721694 -0.377062 0 255 0
0.445662 0.291374 0.186707 0 255 0
-0.436127 -0.210646 0.395523 0 255 0
0.129899 -0.142229 -0.551359 0 255 0
0.287064 -0.087606 -0.486094 0 255 0
0.358111 -0.780225 -0.049908 0 255 0
-0.333366 0.520732 -0.346934 0 255 0
-0.380180 0.572451 -0.232134 0 255 0
0.514868 0.046910 0.353962 0 255 0
-0.276427 0.521850 0.281295 0 255 0
0.241744 0.154456 0.494939 0 255 0
0.129021 0.273989 0.557388 0 255 0
0.674627 0.120770 -0.033117 0 255 0
-0.384412 0.018664 -0.415802 0 255 0
0.504284 -0.026146 0.315631 0 255 0
-0.314149 0.251805 -0.587357 0 255 0
-0.248611 0.460478 0.412575 0 255 0
0.478444 0.045381 -0.155002 0 255 0
0.215104 0.611815 -0.060890 0 255 0
0.347749 0.205119 -0.415189 0 255 0
0.180637 -0.629977 0.615129 0 255 0
0.416324 0.030196 -0.341523 0 255 0
-0.449147 0.487351 -0.183558 0 255 0
-0.367697 0.193166 -0.455979 0 255 0
-0.165677 -0.523049 0.589080 0 255 0
-0.405401 -0.048892 0.439728 0 255 0
0.560246 -0.672230 0.019804 0 255 0
0.299245 -0.156870 -0.451316 0 255 0
-0.272632 -0.441472 -0.453015 0 255 0
0.128517 0.684532 0.295569 0 255 0
0.487088 0.456421 0.155359 0 255 0
-0.492332 0.275198 0.040591 0 255 0
0.526813 0.058785 -0.031532 0 255 0
-0.549018 -0.651813 0.080182 0 255 0
0.634465 -0.302763 -0.050177 0 255 0
-0.472130 -0.712776 -0.075605 0 255 0
-0.436483 -0.240602 0.383175 0 255 0
0.382298 -0.685003 -0.218606 0 255 0
0.548772 -0.183357 -0.125285 0 255 0
0.097580 0.599112 -0.377948 0 255 0
-0.387024 0.194396 -0.402703 0 255 0
0.303796 0.421775 0.438442 0 255 0
-0.539223 -0.003052 0.055142 0 255 0
0.588646 -0.029855 0.101425 0 255 0
-0.007280 -0.784926 0.517304 0 255 0
-0.218211 0.537745 -0.532713 0 255 0
0.116940 0.223367 0.503905 0 255 0
-0.414913 -0.072818 0.324295 0 255 0
0.414628 0.514808 0.340942 0 255 0
-0.297916 -0.273194 -0.447793 0 255 0
0.529115 -0.241094 0.504859 0 255 0
0.062812 -0.722700 0.421939 0 255 0
0.039767 -0.288221 0.668536 0 255 0
-0.009542 -0.542296 -0.473387 0 255 0
-0.311797 -0.187116 0.506565 0 255 0
-0.509017 -0.378205 -0.049025 0 255 0
0.252570 0.019062 0.592945 0 255 0
0.496952 -0.498738 -0.273521 0 255 0
-0.465360 -0.009737 -0.469543 0 255 0
0.437419 -0.206088 0.503761 0 255 0
0.162659 0.656849 0.327858 0 255 0
0.406722 -0.721821 0.106878 0 255 0
-0.499428 0.308101 -0.297894 0 255 0
0.161414 -0.011385 -0.575703 0 255 0
-0.445502 0.002317 0.374773 0 255 0
-0.007369 -0.835045 0.096643 0 255 0
-0.553813 -0.485588 0.081791 0 255 0
0.279049 0.409392 0.444575 0 255 0
0.511838 -0.201650 -0.219343 0 255 0
0.217062 0.579352 -0.055702 0 255 0
-0.358851 0.410210 0.150519 0 255 0
-0.283073 -0.686861 -0.375461 0 255 0
-0.479509 -0.523278 -0.246027 0 255 0
-0.385652 0.293598 -0.501419 0 255 0
-0.541105 -0.220644 -0.202373 0 255 0
0.015729 -0.816953 0.338559 0 255 0
-0.186030 -0.247408 -0.529287 0 255 0
0.339711 -0.506093 0.579371 0 255 0
0.471258 -0.617457 0.197734 0 255 0
0.092956 0.173340 -0.554721 0 255 0
-0.143516 0.721959 0.279494 0 255 0
0.132211 -0.551708 -0.532471 0 255 0
-0.111446 -0.728482 0.401378 0 255 0
-0.401489 0.141903 -0.416766 0 255 0
0.316972 0.117828 -0.425849 0 255 0
-0.498388 -0.509209 -0.097761 0 255 0
-0.176128 -0.172694 0.614954 0 255 0
-0.277864 0.177117 -0.588050 0 255 0
0.302189 0.609791 0.346951 0 255 0
0.555269 0.098679 -0.114097 0 255 0
0.028939 -0.782138 -0.163416 0 255 0
-0.354500 -0.196865 0.492342 0 255 0
-0.466774 -0.066299 0.238176 0 255 0
-0.381499 -0.519986 0.408364 0 255 0
0.194780 -0.309638 0.690173 0 255 0
-0.138177 -0.850919 0.057218 0 255 0
-0.515337 -0.287851 -0.131124 0 255 0
0.102395 -0.003474 -0.601489 0 255 0
0.394935 -0.768969 0.236877 0 255 0
-0.060764 0.305587 -0.519900 0 255 0
0.322884 0.109875 0.503921 0 255 0
0.074661 0.704521 -0.091882 0 255 0
0.520060 -0.324851 -0.224098 0 255 0
0.321062 -0.277554 0.566303 0 255 0
0.348733 -0.357248 0.592734 0 255 0
0.517304 -0.268619 0.395451 0 255 0
-0.527537 0.008396 0.105535 0 255 0
-0.319465 0.280152 0.257668 0 255 0
0.418813 -0.013104 -0.262565 0 255 0
0.300289 0.157021 0.519823 0 255 0
-0.299580 0.373429 0.355042 0 255 0
0.547333 0.175811 -0.087967 0 255 0
-0.182807 0.303712 -0.563319 0 255 0
0.294165 0.079310 0.608381 0 255 0
0.261648 -0.556575 -0.493440 0 255 0
-0.416859 0.475229 -0.285098 0 255 0
-0.453809 -0.027988 0.445338 0 255 0
0.137572 -0.580878 -0.508986 0 255 0
-0.228876 -0.034341 -0.498852 0 255 0
0.374170 0.373440 -0.111825 0 255 0
-0.083917 0.642168 0.342219 0 255 0
0.516893 -0.411939 -0.206739 0 255 0
0.447320 -0.518705 0.406955 0 255 0
-0.393815 0.020062 0.379223 0 255 0
-0.091744 -0.743103 -0.283780 0 255 0
-0.209232 0.439077 0.455680 0 255 0
-0.295401 0.435016 0.211334 0 255 0
0.122926 -0.283037 0.626385 0 255 0
-0.477193 -0.670125 -0.018237 0 255 0
0.605072 -0.363422 0.337048 0 255 0
-0.003536 -0.121562 -0.512109 0 255 0
0.621485 -0.028663 -0.176621 0 255 0
0.475416 -0.398233 -0.337991 0 255 0
-0.541105 -0.220644 -0.202373 0 255 0
-0.415693 -0.083042 0.497833 0 255 0
0.330096 -0.786334 -0.155939 0 255 0
0.241810 -0.620836 -0.362348 0 255 0
0.229990 0.461216 -0.134652 0 255 0
0.069180 -0.033278 -0.563466 0 255 0
-0.187626 0.477007 -0.502312 0 255 0
0.130610 0.641868 0.252825 0 255 0
0.081055 -0.129848 0.692116 0 255 0
-0.480341 -0.650857 -0.109514 0 255 0
-0.320530 -0.762413 0.195608 0 255 0
-0.146031 0.630741 0.400796 0 255 0
0.279239 0.328647 0.478415 0 255 0
0.128246 -0.762876 -0.273130 0 255 0
-0.370056 -0.328337 0.477329 0 255 0
-0.150104 -0.050487 0.612553 0 255 0
0.618041 -0.305580 -0.157560 0 255 0
0.247412 -0.082751 0.639056 0 255 0
-0.183400 -0.155777 0.677405 0 255 0
-0.244219 0.081435 0.475682 0 255 0
0.312181 -0.139835 -0.479814 0 255 0
-0.026113 0.744316 0.138609 0 255 0
0.288218 -0.787439 -0.096868 0 255 0
-0.030643 0.324467 0.517189 0 255 0
0.284181 0.001195 -0.534269 0 255 0
-0.551950 -0.375888 -0.102982 0 255 0
0.209849 0.392924 0.484583 0 255 0
0.227764 -0.156174 -0.486833 0 255 0
-0.197922 0.475072 0.424928 0 255 0
0.150152 -0.680660 -0.407156 0 255 0
0.007526 0.375374 -0.490197 0 255 0
0.025417 -0.134578 -0.512304 0 255 0
0.476790 0.186808 0.005143 0 255 0
0.292683 -0.037448 -0.448028 0 255 0
-0.097732 0.540369 -0.558979 0 255 0
0.151068 0.053951 -0.556987 0 255 0
-0.497013 -0.480291 -0.147075 0 255 0
0.463665 0.137520 -0.122567 0 255 0
-0.273115 -0.746181 -0.233921 0 255 0
-0.396638 0.210181 -0.442235 0 255 0
-0.581345 -0.386963 -0.035049 0 255 0
0.426007 -0.725788 0.303322 0 255 0
0.511770 -0.109168 -0.247935 0 255 0
0.311665 0.716481 0.145757 0 255 0
0.207983 0.221505 -0.602189 0 255 0
-0.382402 0.193824 0.266168 0 255 0
-0.443520 0.384285 -0.261269 0 255 0
-0.505907 -0.145650 0.188501 0 255 0
-0.037071 -0.428907 -0.569851 0 255 0
-0.021023 -0.703090 0.522515 0 255 0
0.314602 -0.252894 0.676704 0 255 0
0.385227 -0.389827 -0.387744 0 255 0
0.164833 0.024819 -0.547450 0 255 0
0.440092 -0.597808 -0.375635 0 255 0
-0.029465 0.847931 0.118185 0 255 0
0.314101 0.252760 -0.364669 0 255 0
0.252017 0.664530 0.227428 0 255 0
-0.153181 -0.721366 0.431246 0 255 0
-0.384119 0.163984 0.283440 0 255 0
0.645943 0.122217 -0.123322 0 255 0
-0.281815 -0.754750 -0.037034 0 255 0
0.000471 -0.000117 0.592379 0 255 0
0.181115 -0.714368 -0.260793 0 255 0
0.254889 -0.580155 -0.417896 0 255 0
-0.166006 0.592938 -0.491412 0 255 0
-0.085182 0.456930 0.557587 0 255 0
-0.594574 -0.085781 -0.274475 0 255 0
-0.568389 -0.056942 -0.042493 0 255 0
0.035126 -0.655364 -0.392884 0 255 0
-0.618030 -0.406798 0.081525 0 255 0
0.556140 0.012078 -0.096086 0 255 0
-0.146458 0.565906 -0.027910 0 255 0
-0.604015 -0.309610 -0.082885 0 255 0
0.095978 0.615484 -0.081684 0 255 0
0.495728 -0.335371 0.392752 0 255 0
0.243831 0.655269 0.256255 0 255 0
-0.520616 -0.556288 0.227058 0 255 0
-0.336997 -0.742777 0.104164 0 255 0
0.568245 0.139812 -0.172617 0 255 0
-0.303546 -0.808178 -0.106635 0 255 0
0.172644 0.571846 -0.249497 0 255 0
-0.163570 -0.722740 -0.433204 0 255 0
0.467667 0.005623 0.444556 0 255 0
-0.219133 -0.812424 0.259223 0 255 0
-0.318018 -0.692013 -0.200234 0 255 0
-0.378635 -0.089124 0.425132 0 255 0
-0.467677 -0.464725 0.247618 0 255 0
0.004324 0.588372 -0.279718 0 255 0
-0.320224 -0.718640 0.271830 0 255 0
-0.361142 0.386510 -0.380540 0 255 0
0.036370 -0.853713 -0.020647 0 255 0
-0.400950 0.147486 0.412044 0 255 0
-0.111065 -0.751037 0.398739 0 255 0
0.099725 0.275034 -0.530250 0 255 0
0.048041 0.704996 -0.126629 0 255 0
-0.582154 -0.372013 -0.027261 0 255 0
0.321173 0.380437 0.425254 0 255 0
-0.376259 0.518283 -0.335926 0 255 0
0.384272 -0.439234 0.488579 0 255 0
-0.130670 0.295472 -0.531714 0 255 0
-0.254180 0.464220 0.100950 0 255 0
-0.048863 -0.160843 -0.606770 0 255 0
-0.535325 0.045435 -0.251340 0 255 0
0.136538 0.624170 0.281978 0 255 0
-0.345581 -0.206669 0.504429 0 255 0
0.404524 0.256958 -0.131377 0 255 0
-0.213420 0.341956 0.440318 0 255 0
0.202526 -0.439750 -0.459459 0 255 0
-0.136940 0.181248 0.501773 0 255 0
-0.583297 -0.127960 -0.252939 0 255 0
-0.070844 -0.805729 -0.024230 0 255 0
-0.513397 0.315232 0.056788 0 255 0
-0.099995 0.133979 -0.519759 0 255 0
0.603057 -0.305503 -0.028927 0 255 0
0.541271 -0.099819 0.490773 0 255 0
0.496479 -0.663140 -0.163654 0 255 0
0.346616 0.264951 -0.270492 0 255 0
0.592964 -0.261440 -0.075284 0 255 0
0.092180 0.020770 -0.583003 0 255 0
0.522650 0.098253 0.311194 0 255 0
-0.236948 -0.307210 -0.469179 0 255 0
-0.169692 0.618075 -0.114214 0 255 0
0.494869 0.261136 0.252387 0 255 0
-0.348573 -0.687336 -0.237369 0 255 0
0.316514 0.378308 -0.413788 0 255 0
0.113645 -0.804065 -0.124797 0 255 0
-0.350150 -0.726916 -0.035809 0 255 0
0.277107 -0.743194 0.321821 0 255 0
-0.490700 -0.071270 0.357256 0 255 0
-0.045775 0.335957 -0.483577 0 255 0
-0.061105 0.547944 -0.455951 0 255 0
0.443221 -0.305199 -0.358616 0 255 0
-0.306756 -0.327593 -0.455270 0 255 0
0.372126 0.243732 -0.210276 0 255 0
0.200816 -0.783827 -0.172711 0 255 0
0.244434 -0.562016 0.586354 0 255 0
0.184151 0.470595 -0.474591 0 255 0
-0.509134 0.349687 -0.130765 0 255 0
0.199121 -0.450139 -0.510465 0 255 0
-0.383749 0.054915 -0.532622 0 255 0
-0.577651 -0.079333 -0.144544 0 255 0
0.462258 -0.112903 -0.282372 0 255 0
-0.400777 0.053476 0.302243 0 255 0
-0.181251 0.595285 0.347558 0 255 0
-0.353269 -0.734911 0.050164 0 255 0
0.481319 -0.615561 -0.100119 0 255 0
0.231753 -0.056646 -0.603904 0 255 0
-0.285506 -0.235948 -0.454194 0 255 0
0.478336 -0.035481 0.416079 0 255 0
0.169571 0.620286 -0.084794 0 255 0
-0.070773 -0.025106 -0.522629 0 255 0
-0.109744 -0.283460 0.623182 0 255 0
-0.319888 0.444711 -0.457696 0 255 0
0.438227 0.396840 0.073091 0 255 0
0.440318 0.007548 -0.306761 0 255 0
-0.062704 -0.401898 0.627407 0 255 0
0.315038 0.571016 -0.053133 0 255 0
-0.146105 0.586016 -0.129702 0 255 0
-0.035387 0.109144 0.562850 0 255 0
0.165162 -0.407642 0.711503 0 255 0
-0.169122 0.686792 0.311303 0 255 0
0.481352 0.442454 0.141051 0 255 0
0.541070 -0.022918 -0.186530 0 255 0
0.227704 0.596638 -0.047594 0 255 0
0.317398 -0.694679 0.380349 0 255 0
-0.242843 0.702994 0.248348 0 255 0
-0.315618 -0.748444 -0.176726 0 255 0
-0.239293 0.367343 0.434554 0 255 0
0.256261 0.253893 -0.421313 0 255 0
-0.446001 0.161229 0.119373 0 255 0
0.459687 -0.000672 0.425596 0 255 0
0.472403 -0.514974 0.367226 0 255 0
-0.259401 0.093369 0.443427 0 255 0
-0.288536 -0.758530 -0.157444 0 255 0
0.558399 -0.560774 -0.019249 0 255 0
-0.159681 0.642148 0.373892 0 255 0
0.086374 0.637064 0.349396 0 255 0
-0.521377 -0.328029 -0.030776 0 255 0
-0.466937 -0.324926 -0.300565 0 255 0
-0.253105 -0.627967 0.647970 0 255 0
-0.240464 0.483027 0.333335 0 255 0
-0.539122 0.323865 -0.227920 0 255 0
0.181852 -0.253055 0.692512 0 255 0
-0.062893 0.590022 0.452120 0 255 0
0.175759 0.477698 -0.409297 0 255 0
0.436051 -0.272596 0.627024 0 255 0
0.368794 -0.153228 -0.385350 0 255 0
-0.487763 0.393413 -0.121312 0 255 0
0.229523 -0.455482 0.600374 0 255 0
0.055685 0.052665 0.573212 0 255 0
-0.223188 0.669746 0.152673 0 255 0
-0.265809 0.442675 0.139215 0 255 0
-0.248885 0.557896 -0.055076 0 255 0
0.264027 -0.084768 -0.483229 0 255 0
0.053744 0.569608 -0.401280 0 255 0
-0.095853 0.610222 -0.437967 0 255 0
0.245119 -0.320218 0.608554 0 255 0
-0.464077 -0.108323 0.503051 0 255 0
-0.257268 -0.637585 0.598070 0 255 0
-0.271414 0.381414 -0.439154 0 255 0
0.212230 -0.319656 -0.487394 0 255 0
0.215196 0.687693 0.164441 0 255 0
0.577443 -0.229119 -0.165898 0 255 0
0.542598 -0.592884 -0.005379 0 255 0
-0.158646 0.568508 -0.016993 0 255 0
0.426926 0.348460 0.019752 0 255 0
-0.256536 0.429469 0.134138 0 255 0
-0.351653 0.196730 0.312700 0 255 0
-0.631989 -0.003644 -0.281898 0 255 0
-0.510037 -0.501600 0.055464 0 255 0
-0.474942 -0.132960 -0.366964 0 255 0
-0.132248 0.693811 -0.074522 0 255 0
-0.066916 0.642143 -0.337992 0 255 0
-0.015333 -0.164241 -0.559745 0 255 0
0.425889 0.465441 0.324158 0 255 0
0.414449 0.390957 0.372067 0 255 0
-0.520675 -0.412714 0.031902 0 255 0
-0.317592 -0.248740 -0.437088 0 255 0
0.118190 -0.423260 0.619710 0 255 0
-0.083359 0.142843 0.503019 0 255 0
-0.554984 -0.075937 0.214634 0 255 0
-0.273285 0.241741 -0.633335 0 255 0
0.443754 -0.172140 -0.377293 0 255 0
-0.329558 -0.751033 0.106227 0 255 0
0.045692 0.752404 0.159323 0 255 0
-0.453681 -0.098314 0.435034 0 255 0
-0.169907 -0.564605 -0.427245 0 255 0
0.592776 -0.528207 -0.140533 0 255 0
-0.271079 0.498358 -0.466309 0 255 0
0.329605 0.754451 0.038125 0 255 0
0.214680 -0.792256 0.351497 0 255 0
0.533554 -0.631913 -0.059845 0 255 0
0.078865 -0.772385 -0.200109 0 255 0
-0.030444 -0.842268 0.361453 0 255 0
0.087850 0.330841 0.547147 0 255 0
0.153815 0.078986 -0.627930 0 255 0
0.044549 -0.396023 -0.590224 0 255 0
0.015344 -0.858193 -0.148905 0 255 0
0.090594 0.800963 -0.026571 0 255 0
-0.262171 -0.476729 -0.457980 0 255 0
0.069486 0.613883 0.483511 0 255 0
0.487065 0.203323 0.105464 0 255 0
-0.151048 0.534570 0.115353 0 255 0
-0.120226 0.312288 0.544157 0 255 0
0.481414 0.325996 0.033586 0 255 0
0.588281 -0.031772 0.008944 0 255 0
0.058360 0.853090 -0.029994 0 255 0
-0.471321 -0.710306 0.219917 0 255 0
-0.258741 0.618409 -0.262803 0 255 0
-0.301784 0.390968 0.209612 0 255 0
-0.349589 -0.795933 0.040213 0 255 0
0.292946 -0.399454 -0.500068 0 255 0
-0.323714 -0.538530 0.481637 0 255 0
0.627854 -0.188588 0.057395 0 255 0
-0.006191 -0.684668 0.483795 0 255 0
-0.160961 -0.561987 -0.427868 0 255 0
0.446543 -0.045731 -0.260053 0 255 0
0.484037 -0.651360 0.201959 0 255 0
0.261048 0.563522 0.446436 0 255 0
-0.444219 0.552101 -0.208509 0 255 0
-0.186288 -0.002545 -0.589671 0 255 0
0.228502 -0.667143 -0.326481 0 255 0
-0.458020 0.138170 0.329394 0 255 0
-0.356139 0.441185 -0.408742 0 255 0
0.111070 -0.717586 0.384745 0 255 0
-0.547532 0.078248 -0.390619 0 255 0
-0.511641 -0.197831 0.298099 0 255 0
0.221656 -0.020419 -0.514479 0 255 0
-0.111936 -0.756997 -0.285421 0 255 0
-0.176836 0.506824 0.144766 0 255 0
-0.113010 0.183473 0.474883 0 255 0
-0.185408 0.458517 0.430235 0 255 0
0.392023 -0.694515 0.156819 0 255 0
-0.125566 -0.030942 -0.513791 0 255 0
-0.097249 -0.046062 0.621043 0 255 0
-0.355309 -0.715356 0.261390 0 255 0
0.144602 0.648829 -0.056422 0 255 0
0.073697 -0.638160 0.495861 0 255 0
-0.083732 -0.414355 -0.542855 0 255 0
0.226253 0.569808 -0.215844 0 255 0
-0.446409 -0.316056 -0.341894 0 255 0
-0.014476 0.614742 -0.209543 0 255 0
-0.400842 -0.047059 0.451870 0 255 0
-0.464113 0.352441 -0.260369 0 255 0
0.404675 -0.060714 0.522803 0 255 0
0.229820 -0.054407 0.608880 0 255 0
0.275008 0.327323 0.437376 0 255 0
0.149427 -0.205103 0.647179 0 255 0
-0.128957 0.616047 0.429238 0 255 0
-0.013728 0.163920 -0.570774 0 255 0
0.189173 -0.671797 0.423311 0 255 0
-0.307361 0.684275 -0.230801 0 255 0
-0.361119 0.417074 0.097328 0 255 0
0.507962 -0.409034 0.417509 0 255 0
0.051642 0.719315 0.146192 0 255 0
0.385598 0.702259 0.116559 0 255 0
0.057652 -0.512147 -0.502015 0 255 0
0.417324 -0.018607 -0.470244 0 255 0
0.122401 0.256158 -0.576937 0 255 0
0.116077 -0.783675 0.309392 0 255 0
0.000901 0.574780 0.417276 0 255 0
-0.051274 -0.514813 -0.550366 0 255 0
-0.529771 -0.451111 -0.179496 0 255 0
-0.497378 -0.364685 -0.135067 0 255 0
0.502681 -0.258363 -0.255464 0 255 0
-0.170486 0.569939 0.172615 0 255 0
-0.543795 0.275291 -0.031397 0 255 0
-0.375321 0.435740 -0.351179 0 255 0
-0.135219 -0.043627 -0.494944 0 255 0
-0.205848 -0.146498 0.607253 0 255 0
0.286077 -0.725986 -0.265640 0 255 0
0.361609 -0.322372 -0.373976 0 255 0
0.513065 -0.685104 0.107617 0 255 0
-0.541544 -0.632884 0.229700 0 255 0
0.602297 0.101743 -0.258828 0 255 0
-0.379882 0.339325 -0.479390 0 255 0
-0.454961 0.057618 0.188840 0 255 0
0.365692 0.050077 -0.357436 0 255 0
0.024268 -0.412031 -0.508612 0 255 0
0.358295 0.589485 -0.079015 0 255 0
0.545955 -0.085819 0.365778 0 255 0
-0.509993 -0.100766 -0.262250 0 255 0
-0.278196 0.597168 -0.141188 0 255 0
-0.383079 0.340622 0.198792 0 255 0
0.350954 0.050187 0.542112 0 255 0
-0.040218 -0.410000 0.630956 0 255 0
-0.386762 0.513931 -0.128075 0 255 0
0.462467 -0.671584 -0.196326 0 255 0
0.119339 0.382918 0.539751 0 255 0
0.287310 -0.754907 -0.010820 0 255 0
-0.491710 0.005017 0.162393 0 255 0
0.360699 -0.444528 -0.391390 0 255 0
0.088966 -0.027685 0.619878 0 255 0
-0.325487 -0.689148 -0.302253 0 255 0
-0.530518 0.188148 0.043381 0 255 0
-0.479826 0.299269 0.004476 0 255 0
0.478859 0.626652 -0.017447 0 255 0
-0.185072 0.007297 -0.567142 0 255 0
-0.114715 -0.390781 0.647368 0 255 0
0.334212 0.047317 0.543575 0 255 0
-0.578730 -0.599949 -0.056478 0 255 0
-0.035867 -0.405455 -0.562974 0 255 0
-0.243920 0.174402 -0.522202 0 255 0
0.308931 0.278394 -0.378687 0 255 0
-0.267530 -0.772623 -0.114475 0 255 0
-0.430744 -0.661021 0.301674 0 255 0
0.482549 -0.625478 0.108042 0 255 0
-0.342508 -0.678630 0.349146 0 255 0
0.349127 -0.735044 0.225277 0 255 0
-0.536569 0.170076 -0.106302 0 255 0
0.389533 0.117553 0.476126 0 255 0
0.239599 0.442922 -0.145222 0 255 0
0.153216 -0.403219 0.626383 0 255 0
-0.299403 -0.465690 0.518379 0 255 0
0.342070 0.585009 0.266016 0 255 0
0.566334 -0.473460 -0.223475 0 255 0
-0.442856 -0.411176 -0.324307 0 255 0
-0.186574 -0.811923 0.202190 0 255 0
-0.404527 0.166308 -0.416530 0 255 0
-0.285752 0.604524 -0.095759 0 255 0
0.275185 0.120787 0.491343 0 255 0
-0.225958 -0.735270 0.454798 0 255 0
0.079014 0.677806 -0.071327 0 255 0
-0.396856 -0.084087 -0.319431 0 255 0
0.255522 -0.638903 -0.407940 0 255 0
-0.100341 0.621663 -0.151921 0 255 0
0.112416 0.277567 0.519132 0 255 0
-0.392292 -0.328547 0.515884 0 255 0
0.296521 -0.147944 -0.487045 0 255 0
0.105719 -0.144722 0.666848 0 255 0
-0.049765 -0.086016 -0.503252 0 255 0
-0.561924 -0.472562 -0.105892 0 255 0
-0.507668 0.321987 0.083565 0 255 0
0.182714 -0.088317 -0.589406 0 255 0
0.063465 0.714840 -0.032406 0 255 0
0.119005 -0.687942 -0.401906 0 255 0
-0.566513 0.232258 -0.166150 0 255 0
-0.214968 0.167113 -0.522566 0 255 0
0.071650 0.319232 -0.544563 0 255 0
-0.444286 -0.640771 0.089203 0 255 0
0.398256 0.164308 -0.294548 0 255 0
0.416901 0.617162 0.113835 0 255 0
-0.231490 0.177711 -0.648575 0 255 0
0.344943 0.364496 -0.117801 0 255 0
-0.333983 0.226604 0.330459 0 255 0
0.449200 0.225148 -0.079395 0 255 0
-0.268004 0.547486 0.004002 0 255 0
-0.146887 0.628906 -0.438833 0 255 0
0.634829 -0.340512 -0.269970 0 255 0
-0.400043 -0.072786 0.546386 0 255 0
-0.233230 -0.051640 -0.529479 0 255 0
-0.117318 0.779358 0.137055 0 255 0
-0.427651 -0.039743 0.376780 0 255 0
-0.529293 -0.355845 0.229766 0 255 0
0.620663 0.019027 -0.079196 0 255 0
0.573546 -0.042820 -0.175887 0 255 0
0.047449 0.284206 0.511501 0 255 0
0.544153 -0.180232 -0.150314 0 255 0
0.489614 0.098953 0.278830 0 255 0
0.584012 0.018084 -0.172838 0 255 0
0.185911 0.422128 0.547321 0 255 0
-0.369766 0.588291 -0.167216 0 255 0
-0.460496 -0.164854 0.304254 0 255 0
0.405285 0.454808 0.359204 0 255 0
0.664271 -0.131589 -0.209747 0 255 0
0.293034 0.288940 -0.358836 0 255 0
-0.322715 -0.147329 -0.428176 0 255 0
-0.344380 -0.270891 -0.537433 0 255 0
-0.025775 0.287458 0.496784 0 255 0
0.197404 0.148371 -0.517747 0 255 0
0.207929 -0.039441 -0.547709 0 255 0
-0.156593 -0.499903 0.630526 0 255 0
-0.007821 -0.709103 0.425913 0 255 0
-0.524218 0.292183 0.092197 0 255 0
-0.495675 -0.244811 0.191187 0 255 0
-0.097456 -0.271575 -0.542018 0 255 0
-0.300132 -0.826285 0.064807 0 255 0
0.441231 0.575276 0.308071 0 255 0
0.581894 0.180090 -0.238218 0 255 0
-0.019002 -0.814519 0.067373 0 255 0
-0.338874 0.184595 -0.475723 0 255 0
0.166253 0.596715 0.426651 0 255 0
0.072409 -0.060936 0.693683 0 255 0
0.565466 -0.364503 -0.124274 0 255 0
0.379136 0.207248 -0.402299 0 255 0
0.535729 -0.103798 0.546368 0 255 0
-0.215542 -0.728442 0.446837 0 255 0
-0.474175 -0.555831 -0.123260 0 255 0
0.429424 0.350674 -0.128726 0 255 0
-0.373499 -0.104302 -0.367592 0 255 0
0.418045 0.060165 -0.238748 0 255 0
0.322135 -0.736071 0.219811 0 255 0
0.547709 -0.123018 0.288865 0 255 0
0.421624 -0.695300 0.203863 0 255 0
-0.437398 -0.145813 -0.341108 0 255 0
0.277233 -0.627693 -0.439165 0 255 0
0.553731 -0.234747 0.348616 0 255 0
0.541953 -0.572053 0.216062 0 255 0
0.163791 0.171749 0.569667 0 255 0
0.464256 -0.598846 -0.162507 0 255 0
-0.476387 -0.068986 0.182428 0 255 0
-0.426302 0.104651 0.441810 0 255 0
-0.313371 0.527680 -0.425427 0 255 0
0.470810 0.550234 -0.053513 0 255 0
-0.531738 -0.277305 -0.221200 0 255 0
-0.016739 0.525377 -0.460181 0 255 0
0.482324 0.381000 0.280743 0 255 0
0.374176 -0.003732 0.494243 0 255 0
-0.499287 -0.528294 0.035993 0 255 0
-0.378613 0.425278 0.079213 0 255 0
0.609739 -0.105365 0.029209 0 255 0
-0.347288 0.650177 -0.144444 0 255 0
0.239351 0.163989 0.503418 0 255 0
0.465322 -0.090291 0.431644 0 255 0
0.229453 -0.574096 0.554809 0 255 0
0.270779 0.343833 -0.366627 0 255 0
0.508860 -0.529826 0.298101 0 255 0
0.638727 -0.270365 0.360463 0 255 0
0.339997 0.837611 0.011803 0 255 0
0.466866 0.332601 0.230762 0 255 0
-0.092316 0.238627 -0.598421 0 255 0
0.079583 0.071467 0.643773 0 255 0
-0.555944 -0.219325 -0.175429 0 255 0
-0.106936 0.839589 0.168659 0 255 0
0.445119 -0.286810 0.489138 0 255 0
-0.430719 0.130333 -0.572515 0 255 0
0.002436 0.804543 0.003187 0 255 0
-0.400235 -0.728615 0.276533 0 255 0
0.456998 -0.465674 0.392728 0 255 0
-0.111389 -0.548587 -0.479790 0 255 0
0.304260 0.283804 0.416393 0 255 0
-0.456352 -0.042554 0.384850 0 255 0
-0.217891 -0.679291 0.469721 0 255 0
-0.487586 -0.351895 -0.180507 0 255 0
0.335809 0.371759 -0.123914 0 255 0
0.127770 -0.557684 -0.495711 0 255 0
-0.190915 -0.264674 -0.517279 0 255 0
-0.506693 -0.323647 0.040814 0 255 0
0.158632 0.585603 -0.118869 0 255 0
-0.415746 0.188951 0.363944 0 255 0
0.065489 -0.855846 0.203146 0 255 0
0.382675 0.682904 0.098623 0 255 0
-0.419840 -0.543745 0.383932 0 255 0
-0.336572 0.299041 0.284983 0 255 0
0.329116 -0.851382 0.111067 0 255 0
-0.244410 0.372744 -0.552398 0 255 0
0.482931 0.465675 0.213286 0 255 0
0.592266 0.087137 0.016552 0 255 0
-0.417335 0.229903 0.282530 0 255 0
0.350683 0.338878 -0.277702 0 255 0
-0.349300 -0.787958 -0.152402 0 255 0
0.238105 0.044607 0.576698 0 255 0
0.311435 -0.368968 0.575062 0 255 0
-0.432606 0.342754 0.116490 0 255 0
-0.521747 -0.062757 -0.213380 0 255 0
-0.388455 0.196766 -0.418904 0 255 0
0.125790 -0.079466 -0.607706 0 255 0
-0.394595 0.449639 -0.330592 0 255 0
0.078355 -0.529712 -0.475360 0 255 0
-0.542128 -0.475341 -0.189591 0 255 0
-0.022823 -0.849434 -0.101995 0 255 0
0.308346 -0.010467 0.554517 0 255 0
0.570325 -0.099856 -0.031287 0 255 0
-0.116747 -0.006337 0.608977 0 255 0
0.578977 -0.071481 0.067942 0 255 0
-0.348590 -0.030499 0.470396 0 255 0
-0.477827 0.050957 -0.287067 0 255 0
-0.250019 -0.397826 -0.529594 0 255 0
0.161765 0.223837 0.491423 0 255 0
-0.322865 -0.257423 -0.430999 0 255 0
-0.456042 0.267993 0.073459 0 255 0
0.561978 -0.541145 -0.081938 0 255 0
-0.574773 0.135756 -0.060937 0 255 0
-0.244476 0.082568 0.568661 0 255 0
0.382577 -0.557585 0.467193 0 255 0
0.104737 0.479574 -0.441283 0 255 0
-0.207497 0.343558 -0.460835 0 255 0
-0.289421 0.325036 0.329415 0 255 0
0.431383 -0.689805 0.220538 0 255 0
-0.272093 0.463163 0.070338 0 255 0
-0.450716 -0.302352 -0.363806 0 255 0
-0.419531 0.028956 0.219476 0 255 0
-0.144134 -0.127109 -0.468023 0 255 0
0.341308 -0.667719 0.337634 0 255 0
0.490541 0.275071 -0.015484 0 255 0
0.144567 -0.698589 -0.313713 0 255 0
-0.382530 0.103831 -0.385712 0 255 0
0.197876 0.785380 0.020032 0 255 0
0.462359 -0.013115 0.434384 0 255 0
-0.462194 0.347101 -0.003664 0 255 0
-0.557100 -0.077019 0.095617 0 255 0
-0.171311 -0.835309 0.084118 0 255 0
-0.286409 0.552457 -0.039031 0 255 0
0.378042 0.434801 -0.121400 0 255 0
-0.431921 0.487246 -0.059996 0 255 0
-0.378393 0.340695 0.166410 0 255 0
0.468464 0.095518 0.341731 0 255 0
0.272992 0.649834 -0.045024 0 255 0
-0.223267 -0.180061 -0.485196 0 255 0
0.315471 0.498987 -0.082140 0 255 0
0.324099 -0.023725 -0.465882 0 255 0
-0.080473 0.744986 0.069375 0 255 0
0.644644 -0.174895 0.054360 0 255 0
-0.242767 0.450765 0.243909 0 255 0
0.213212 -0.735222 0.289384 0 255 0
0.219910 -0.059233 -0.504378 0 255 0
-0.251160 -0.536715 -0.419146 0 255 0
0.216222 0.021644 0.629189 0 255 0
0.495759 -0.401771 0.375881 0 255 0
0.020061 0.293307 -0.621726 0 255 0
-0.000130 0.599075 -0.332649 0 255 0
-0.037894 -0.211959 -0.584955 0 255 0
-0.023556 0.580768 0.520761 0 255 0
-0.149700 0.275446 0.435186 0 255 0
-0.224630 -0.605587 -0.398150 0 255 0
-0.536816 0.127027 -0.027823 0 255 0
-0.205623 0.180712 -0.557127 0 255 0
0.281766 -0.751174 0.285607 0 255 0
-0.372870 0.545352 -0.326378 0 255 0
-0.457105 -0.163922 0.479674 0 255 0
-0.366714 0.472012 -0.331379 0 255 0
-0.297653 0.630930 -0.311862 0 255 0
0.012733 -0.643570 0.543872 0 255 0
-0.415036 -0.609012 0.374114 0 255 0
-0.127401 0.732713 0.088824 0 255 0
-0.125896 0.505038 0.432902 0 255 0
0.198970 0.776783 -0.050642 0 255 0
0.223567 -0.769452 0.177921 0 255 0
0.320318 0.388960 -0.272329 0 255 0
-0.292819 0.187921 -0.507484 0 255 0
-0.506189 -0.486372 0.368387 0 255 0
0.259892 0.105731 0.520427 0 255 0
-0.228595 -0.226372 0.646929 0 255 0
-0.176127 0.530163 0.028147 0 255 0
0.400585 0.659534 0.023679 0 255 0
0.228502 0.046892 0.556957 0 255 0
-0.256782 -0.718876 0.416503 0 255 0
0.123085 -0.755771 0.375488 0 255 0
-0.050659 -0.101521 -0.493818 0 255 0
0.393157 -0.537776 0.483270 0 255 0
-0.076745 0.384224 0.543004 0 255 0
0.030292 0.483772 0.539339 0 255 0
0.006416 0.669236 -0.497597 0 255 0
-0.075937 0.661462 -0.219114 0 255 0
0.350016 0.193590 -0.297690 0 255 0
0.486030 0.241765 -0.182660 0 255 0
0.018646 0.028750 0.599145 0 255 0
-0.182437 -0.465231 -0.507717 0 255 0
-0.112582 0.479826 -0.529691 0 255 0
-0.579349 0.100905 -0.015522 0 255 0
0.100080 -0.087421 -0.618958 0 255 0
0.209679 -0.446766 0.622573 0 255 0
0.517543 0.018823 0.268226 0 255 0
-0.116895 -0.696598 -0.422890 0 255 0
-0.299006 -0.721715 -0.133355 0 255 0
-0.129431 -0.750657 0.380145 0 255 0
-0.021757 0.536846 0.470393 0 255 0
-0.464317 -0.593859 -0.101274 0 255 0
0.040887 0.743572 0.199364 0 255 0
0.343160 0.392466 -0.169248 0 255 0
-0.050153 0.821805 0.024408 0 255 0
-0.113882 0.607643 -0.245704 0 255 0
0.201014 -0.605371 -0.463256 0 255 0
-0.252437 -0.767513 0.302663 0 255 0
0.099879 0.152864 -0.620113 0 255 0
-0.523555 0.061295 0.398421 0 255 0
0.393536 -0.595692 -0.279791 0 255 0
0.416011 -0.002696 0.439146 0 255 0
0.276700 -0.312807 0.613775 0 255 0
-0.569350 -0.146047 0.036594 0 255 0
-0.092693 -0.149212 -0.547275 0 255 0
0.535377 -0.053677 0.331446 0 255 0
-0.313766 -0.205998 0.570961 0 255 0
-0.379127 0.151679 0.226390 0 255 0
-0.375577 0.020774 -0.446791 0 255 0
0.178711 0.067439 -0.541945 0 255 0
-0.481667 -0.365003 0.427759 0 255 0
0.084043 0.471483 -0.426874 0 255 0
-0.389495 0.126797 0.433809 0 255 0
-0.164948 0.648105 -0.397098 0 255 0
-0.189791 -0.842206 -0.020743 0 255 0
0.560662 -0.295577 0.350705 0 255 0
-0.230371 -0.757877 -0.188787 0 255 0
-0.584575 -0.165160 0.112782 0 255 0
-0.327304 -0.228277 0.592916 0 255 0
0.352711 0.349008 0.403243 0 255 0
-0.307097 0.031915 0.441412 0 255 0
0.515819 -0.489024 0.432585 0 255 0
0.481497 0.154777 0.392290 0 255 0
-0.547938 -0.186961 -0.022391 0 255 0
-0.401709 -0.125681 -0.321033 0 255 0
-0.022863 -0.339075 0.648744 0 255 0
0.109273 0.795860 0.055474 0 255 0
-0.155655 0.585407 0.057392 0 255 0
-0.070372 -0.793296 -0.108497 0 255 0
-0.431798 -0.599986 0.305928 0 255 0
0.017797 0.307814 0.522033 0 255 0
-0.242585 0.539055 0.281157 0 255 0
0.075722 -0.819787 0.026739 0 255 0
-0.485928 -0.214715 -0.277802 0 255 0
0.415616 0.156390 0.477984 0 255 0
0.104870 0.237991 -0.524373 0 255 0
0.288367 0.399968 0.447803 0 255 0
-0.375715 -0.051802 0.425992 0 255 0
-0.557416 -0.106077 -0.170726 0 255 0
0.023543 0.619552 -0.373069 0 255 0
0.087744 0.652145 0.325171 0 255 0
0.240810 -0.742592 -0.225162 0 255 0
-0.179590 -0.772659 -0.326069 0 255 0
0.414954 0.315799 -0.049060 0 255 0
-0.002174 -0.063344 -0.570456 0 255 0
0.264706 0.573728 0.331563 0 255 0
-0.271256 0.150159 -0.547593 0 255 0
-0.405154 -0.290249 0.539603 0 255 0
0.064202 -0.153041 0.641718 0 255 0
0.509971 0.200373 0.228837 0 255 0
-0.593334 -0.120899 0.248033 0 255 0
-0.512918 -0.605492 -0.065995 0 255 0
-0.436355 -0.423180 0.503090 0 255 0
-0.489620 -0.340905 -0.208025 0 255 0
0.350530 0.061041 -0.389887 0 255 0
-0.425722 0.178724 -0.407008 0 255 0
0.515715 0.059720 -0.227592 0 255 0
0.559480 -0.537502 -0.026320 0 255 0
0.059376 0.312922 0.524644 0 255 0
0.179782 0.427531 -0.484631 0 255 0
-0.485211 -0.502775 -0.188452 0 255 0
-0.328378 0.147168 0.430162 0 255 0
-0.047801 0.203048 -0.639358 0 255 0
-0.277349 -0.110326 0.578342 0 255 0
-0.556746 -0.347752 -0.274908 0 255 0
0.122094 0.170504 0.512298 0 255 0
0.013581 -0.810527 0.329023 0 255 0
0.178554 -0.816073 0.186071 0 255 0
0.497140 -0.229439 0.501346 0 255 0
-0.016886 0.660609 0.346040 0 255 0
-0.168157 -0.455440 -0.474451 0 255 0
0.386361 0.224821 0.438063 0 255 0
-0.266344 0.612886 -0.404159 0 255 0
0.095300 0.249272 -0.518094 0 255 0
-0.556601 -0.424006 -0.048196 0 255 0
-0.249389 0.693119 -0.225002 0 255 0
0.226397 0.195227 -0.559430 0 255 0
0.337745 0.459264 -0.214578 0 255 0
0.574687 0.034729 -0.048660 0 255 0
-0.485481 0.549186 -0.037409 0 255 0
-0.169771 -0.512455 -0.457150 0 255 0
-0.462424 0.197785 -0.325247 0 255 0
0.273915 0.598556 -0.090311 0 255 0
-0.523308 0.338158 0.199624 0 255 0
0.136971 -0.330476 0.698621 0 255 0
0.186821 -0.503789 -0.518853 0 255 0
0.553281 0.239672 0.004108 0 255 0
0.261843 0.277949 0.496779 0 255 0
0.454802 -0.049398 0.430703 0 255 0
-0.454302 -0.599080 0.171877 0 255 0
0.665357 -0.486364 -0.084776 0 255 0
-0.419946 0.520252 -0.046245 0 255 0
-0.382458 0.588341 -0.212680 0 255 0
0.201766 -0.282990 0.694365 0 255 0
-0.529373 -0.065383 0.155870 0 255 0
-0.099894 -0.306586 -0.529218 0 255 0
0.390536 0.638695 0.116369 0 255 0
-0.290962 -0.182238 -0.459107 0 255 0
0.005668 -0.759026 -0.226980 0 255 0
-0.041475 0.608882 -0.323330 0 255 0
-0.211371 0.617737 -0.110552 0 255 0
0.533724 -0.461302 -0.158331 0 255 0
-0.436895 0.071194 0.351547 0 255 0
-0.545947 -0.259175 0.199994 0 255 0
-0.155025 -0.191694 -0.510063 0 255 0
0.265046 0.550222 0.426429 0 255 0
-0.146963 -0.811542 0.003614 0 255 0
0.157825 0.448990 -0.408509 0 255 0
0.135030 0.601912 -0.227966 0 255 0
0.482551 0.577581 0.292898 0 255 0
-0.337550 0.045784 0.309516 0 255 0
0.379659 0.169482 -0.324471 0 255 0
-0.167572 0.609340 -0.521771 0 255 0
-0.410211 -0.528897 0.395778 0 255 0
-0.424703 -0.024115 0.283687 0 255 0
0.587408 -0.127306 -0.115847 0 255 0
0.194173 -0.712657 -0.312029 0 255 0
0.100648 0.076003 0.581119 0 255 0
-0.489775 -0.305136 -0.267374 0 255 0
0.286344 0.424613 0.473020 0 255 0
-0.226649 0.437464 0.316739 0 255 0
-0.510500 -0.521823 -0.060403 0 255 0
-0.343479 -0.055227 -0.455494 0 255 0
-0.388460 0.032091 0.430742 0 255 0
0.365298 -0.458734 0.521666 0 255 0
0.388291 0.080177 -0.342991 0 255 0
0.136384 -0.764680 0.488417 0 255 0
0.310769 0.721977 0.122292 0 255 0
0.125293 -0.394643 -0.497988 0 255 0
-0.055442 -0.118180 -0.487663 0 255 0
0.235696 -0.779360 -0.043215 0 255 0
-0.037729 0.138283 0.542455 0 255 0
-0.212039 0.199634 0.455962 0 255 0
0.213946 0.341047 0.467544 0 255 0
0.463154 -0.088684 0.503098 0 255 0
0.184784 -0.604258 0.493092 0 255 0
-0.079235 -0.724269 0.580621 0 255 0
0.500292 -0.630615 0.149529 0 255 0
-0.222029 0.252609 0.423586 0 255 0
-0.444638 -0.098819 -0.256600 0 255 0
-0.433247 -0.081176 -0.319033 0 255 0
0.527642 0.077097 0.353418 0 255 0
-0.039592 -0.186439 0.648567 0 255 0
0.440071 0.165336 -0.153676 0 255 0
0.182600 0.645667 0.249357 0 255 0
0.188800 0.245920 0.558672 0 255 0
0.577453 0.008676 0.217052 0 255 0
-0.301649 0.383230 0.151489 0 255 0
-0.132435 0.662045 0.380126 0 255 0
-0.045515 -0.784625 0.283372 0 255 0
0.339572 0.302213 -0.392815 0 255 0
0.402888 0.098426 0.461834 0 255 0
-0.192898 -0.843714 0.009573 0 255 0
-0.435529 0.387892 -0.029723 0 255 0
0.582747 -0.107477 -0.193265 0 255 0
0.048452 -0.247507 0.636769 0 255 0
-0.580318 0.041680 -0.282595 0 255 0
0.057175 -0.879973 0.148763 0 255 0
-0.190508 0.680400 0.046167 0 255 0
0.124484 -0.267110 0.677419 0 255 0
0.031512 0.387893 0.509853 0 255 0
-0.473633 -0.569603 0.210317 0 255 0
-0.042762 0.342978 0.482999 0 255 0
-0.500152 -0.248894 0.110201 0 255 0
0.365794 0.370395 -0.072968 0 255 0
0.507935 -0.402614 0.454344 0 255 0
0.283706 0.565085 0.286943 255 0 0
0.297990 0.392106 0.374143 255 0 0
-0.120724 -0.007822 0.057105 255 0 0
0.065195 -0.673122 0.376444 255 0 0
0.036816 -0.338028 0.453257 255 0 0
-0.390238 -0.282228 -0.335704 255 0 0
0.418947 -0.346454 0.323044 255 0 0
-0.118038 0.260485 0.129310 255 0 0
0.124570 -0.175217 -0.211322 255 0 0
0.116486 -0.642329 0.087576 255 0 0
-0.232242 -0.005466 -0.159655 255 0 0
-0.031388 -0.312505 -0.389358 255 0 0
0.492087 -0.535564 -0.145461 255 0 0
-0.206538 0.130022 -0.329068 255 0 0
-0.160764 -0.644328 0.037677 255 0 0
-0.345642 -0.026909 -0.007432 255 0 0
0.417677 0.171903 0.068187 255 0 0
-0.341484 -0.100481 0.324989 255 0 0
0.216242 -0.473805 0.142205 255 0 0
0.415125 0.552140 0.214444 255 0 0
0.206204 0.503438 0.166472 255 0 0
0.399254 -0.196670 0.201811 255 0 0
-0.026945 -0.106401 0.099720 255 0 0
0.211349 -0.693228 -0.151679 255 0 0
0.375733 -0.520042 0.136264 255 0 0
-0.136758 0.261237 0.321749 255 0 0
-0.204449 -0.754150 0.195420 255 0 0
0.207811 -0.546162 -0.033309 255 0 0
0.010159 -0.405042 0.278520 255 0 0
0.536507 -0.478597 0.237975 255 0 0
0.164151 0.470887 0.478181 255 0 0
0.293133 -0.094180 0.212703 255 0 0
-0.106927 0.107340 0.463515 255 0 0
0.145591 0.215555 0.342620 255 0 0
-0.333531 -0.060977 -0.064362 255 0 0
0.008781 -0.451212 0.273892 255 0 0
-0.253184 -0.169726 -0.108254 255 0 0
0.285631 0.131743 -0.015887 255 0 0
-0.465152 0.160494 -0.142838 255 0 0
-0.085177 0.450367 0.068437 255 0 0
0.054104 -0.285303 0.456803 255 0 0
0.102600 -0.216863 0.507707 255 0 0
-0.250822 0.238798 -0.288281 255 0 0
-0.137031 -0.735459 -0.216398 255 0 0
0.015369 -0.172588 -0.434338 255 0 0
0.257966 -0.126553 0.367398 255 0 0
-0.232467 0.221254 -0.127227 255 0 0
0.052419 -0.027386 -0.237381 255 0 0
0.362168 -0.335487 0.095035 255 0 0
0.221204 -0.456008 0.001857 255 0 0
-0.359032 -0.104397 0.222819 255 0 0
-0.384790 -0.273075 0.010623 255 0 0
-0.175466 -0.079823 0.016084 255 0 0
0.246592 -0.612432 -0.049980 255 0 0
-0.315419 -0.541009 0.135556 255 0 0
0.134807 -0.076981 0.284276 255 0 0
-0.088784 0.612263 0.262830 255 0 0
-0.070256 0.241182 0.350748 255 0 0
-0.180038 -0.244288 -0.171884 255 0 0
-0.286611 0.026054 0.406534 255 0 0
0.306304 0.307599 0.253916 255 0 0
-0.096112 -0.716314 -0.214268 255 0 0
0.259165 0.394106 0.230288 255 0 0
-0.015031 0.178934 0.223423 255 0 0
0.337848 0.019403 0.209203 255 0 0
0.482517 -0.058072 0.278067 255 0 0
-0.341516 -0.427767 0.052421 255 0 0
-0.209029 0.188544 -0.102272 255 0 0
0.403410 -0.286159 0.132128 255 0 0
0.095234 -0.250023 -0.239698 255 0 0
-0.424292 -0.386803 0.261648 255 0 0
0.199128 0.455417 0.422084 255 0 0
0.487799 -0.241693 -0.017040 255 0 0
-0.226388 0.013652 0.177828 255 0 0
0.496903 0.048471 0.172506 255 0 0
-0.034125 -0.555179 -0.220970 255 0 0
0.261326 -0.601376 0.067918 255 0 0
0.382452 0.338203 0.024225 255 0 0
0.265129 0.415981 0.325273 255 0 0
0.192181 0.042351 0.498507 255 0 0
0.040271 -0.203504 0.135084 255 0 0
-0.179402 -0.082835 0.401498 255 0 0
0.390750 -0.499603 0.158271 255 0 0
-0.342837 0.147482 -0.085824 255 0 0
0.361442 -0.261994 0.337774 255 0 0
0.453229 -0.376794 -0.201972 255 0 0
0.206204 0.503438 0.166472 255 0 0
-0.223107 -0.422082 -0.037635 255 0 0
-0.156638 -0.239660 0.351305 255 0 0
-0.113798 0.007640 -0.204222 255 0 0
-0.432408 -0.392562 -0.012814 255 0 0
0.143077 -0.569170 0.344823 255 0 0
0.357662 -0.319945 -0.292199 255 0 0
-0.152356 -0.679118 -0.126750 255 0 0
0.178503 -0.334089 0.554946 255 0 0
-0.000510 -0.491845 0.594900 255 0 0
-0.427837 -0.148787 -0.001887 255 0 0
0.375513 -0.368214 0.142287 255 0 0
0.243092 -0.419344 0.154478 255 0 0
0.535025 -0.250524 0.041646 255 0 0
0.287075 -0.231273 0.109722 255 0 0
-0.106267 0.349762 -0.364736 255 0 0
-0.109385 -0.169429 -0.033312 255 0 0
0.154821 -0.021322 0.450339 255 0 0
0.234614 0.343954 -0.387758 255 0 0
-0.165063 0.107214 0.183166 255 0 0
0.150090 -0.455937 0.321549 255 0 0
-0.474098 0.173410 -0.069424 255 0 0
0.364765 0.000972 -0.271323 255 0 0
0.030432 0.090281 0.223086 255 0 0
-0.175438 -0.420094 0.277637 255 0 0
0.528781 -0.031523 0.153933 255 0 0
0.160658 -0.007636 -0.358522 255 0 0
-0.097584 0.378394 -0.476825 255 0 0
0.375290 -0.413207 -0.046165 255 0 0
0.484346 -0.009041 0.002325 255 0 0
0.171812 -0.253522 0.539207 255 0 0
0.304164 0.130344 -0.269020 255 0 0
0.254300 0.135931 -0.119716 255 0 0
-0.222253 -0.013623 -0.464348 255 0 0
-0.324676 0.278846 -0.012980 255 0 0
0.013636 -0.218358 -0.502146 255 0 0
