ply
format ascii 1.0
element vertex 1312
property float x
property float y
property float z
property uchar red
property uchar green
property uchar blue
end_header
-0.098714 0.262013 0.186483 255 0 0
0.248125 -0.037044 -0.038770 255 0 0
0.132192 -0.185529 -0.059635 255 0 0
-0.221121 0.270724 -0.167250 255 0 0
-0.060406 0.084005 0.226279 255 0 0
-0.126065 -0.076616 -0.161400 255 0 0
0.172945 -0.016427 0.141690 255 0 0
-0.215354 -0.035113 0.109650 255 0 0
-0.204743 -0.007415 0.176735 255 0 0
-0.076549 0.084884 0.225381 255 0 0
0.007802 0.174742 -0.313770 255 0 0
0.199189 0.003630 -0.196347 255 0 0
0.034204 -0.387246 -0.015249 255 0 0
-0.141886 -0.004496 -0.210444 255 0 0
0.114812 -0.248968 0.052208 255 0 0
-0.128162 -0.174091 -0.201328 255 0 0
0.206163 -0.010102 -0.049325 255 0 0
0.048313 -0.068869 0.283183 255 0 0
-0.013084 0.217443 0.232873 255 0 0
0.119473 0.377619 0.025124 255 0 0
0.201554 0.310342 -0.086101 255 0 0
0.056055 0.232729 -0.293942 255 0 0
-0.045694 0.141376 -0.290377 255 0 0
-0.056825 0.384390 0.029865 255 0 0
-0.164544 0.146540 -0.254472 255 0 0
0.001849 0.317416 0.191435 255 0 0
0.219011 -0.078266 -0.028460 255 0 0
-0.027125 -0.310660 0.018541 255 0 0
0.142008 0.104909 0.218261 255 0 0
-0.114434 0.319484 0.167581 255 0 0
0.189774 0.280425 -0.013180 255 0 0
0.193605 -0.154551 0.074334 255 0 0
-0.025915 -0.193470 0.261341 255 0 0
0.124291 0.127853 0.227815 255 0 0
-0.114882 -0.229434 -0.172598 255 0 0
0.136590 0.371582 -0.000701 255 0 0
-0.002380 -0.285566 -0.098083 255 0 0
-0.006127 0.375516 0.102527 255 0 0
-0.239728 0.194163 -0.050161 255 0 0
-0.145315 -0.305313 -0.108319 255 0 0
0.206359 -0.111330 0.038295 255 0 0
0.107361 -0.326311 -0.058397 255 0 0
0.205554 0.014931 -0.182587 255 0 0
-0.167091 -0.211724 0.057373 255 0 0
0.122919 -0.149988 -0.166433 255 0 0
0.062670 0.209602 -0.254176 255 0 0
0.003025 -0.210343 -0.256391 255 0 0
-0.091550 -0.210524 -0.178076 255 0 0
-0.071636 -0.263706 0.012021 255 0 0
0.102263 -0.008157 0.207342 255 0 0
-0.144302 0.213625 0.185356 255 0 0
-0.098230 0.326508 0.074029 255 0 0
0.203048 -0.144069 0.088900 255 0 0
0.056620 0.292376 0.183584 255 0 0
-0.137204 0.190340 0.204826 255 0 0
0.121505 -0.257968 -0.057781 255 0 0
0.162781 -0.095341 -0.179429 255 0 0
0.246151 0.254118 -0.042421 255 0 0
0.131862 -0.116550 0.042628 255 0 0
0.167586 -0.207968 0.065460 255 0 0
-0.053686 -0.216881 -0.227126 255 0 0
0.196742 -0.111530 0.054369 255 0 0
-0.264650 0.059768 -0.063720 255 0 0
-0.175997 -0.133716 -0.007376 255 0 0
-0.239960 0.176777 -0.084453 255 0 0
0.188746 -0.053646 0.200847 255 0 0
0.173300 -0.180748 -0.079151 255 0 0
0.234349 0.278492 -0.064016 255 0 0
-0.040143 -0.231479 0.203993 255 0 0
0.192222 -0.020419 0.102491 255 0 0
-0.222083 -0.060293 -0.041353 255 0 0
0.208478 0.010678 -0.053985 255 0 0
-0.036698 -0.350621 -0.049397 255 0 0
0.247704 0.182727 0.059712 255 0 0
-0.176024 0.152032 0.146620 255 0 0
0.166387 0.272041 -0.183285 255 0 0
-0.100319 -0.034014 0.220993 255 0 0
-0.009863 0.162295 -0.311937 255 0 0
0.142965 0.206198 -0.238895 255 0 0
-0.203720 -0.009973 0.105370 255 0 0
0.229443 0.219097 0.100404 255 0 0
0.216763 0.061581 0.115218 255 0 0
0.172956 -0.057860 0.225816 255 0 0
-0.074376 0.070211 0.224860 255 0 0
-0.193122 0.321440 -0.066986 255 0 0
-0.151443 0.235308 -0.227971 255 0 0
0.205332 0.117122 0.107956 255 0 0
0.072421 -0.208559 -0.241031 255 0 0
-0.044824 -0.330728 -0.023326 255 0 0
0.233564 0.172239 0.023301 255 0 0
0.002351 -0.029776 -0.281374 255 0 0
0.060959 0.280809 -0.205176 255 0 0
-0.038068 0.269084 -0.262455 255 0 0
-0.011170 0.346931 -0.165235 255 0 0
-0.153898 0.070356 0.211132 255 0 0
-0.167903 -0.003268 -0.195187 255 0 0
-0.063089 -0.040550 0.244453 255 0 0
-0.189344 0.064945 0.107887 255 0 0
0.098834 0.366045 -0.131935 255 0 0
-0.066642 0.343105 0.035318 255 0 0
-0.030894 -0.283535 -0.182465 255 0 0
-0.249800 0.050165 -0.124070 255 0 0
-0.158748 -0.033669 -0.141686 255 0 0
-0.241454 0.007775 0.035857 255 0 0
0.090774 0.107771 0.241318 255 0 0
0.035711 0.334040 0.078377 255 0 0
0.001502 -0.152519 0.287029 255 0 0
0.054021 0.065772 0.205678 255 0 0
-0.116601 -0.136338 0.208746 255 0 0
0.208914 0.115159 0.116473 255 0 0
-0.170313 0.146088 0.209153 255 0 0
0.023356 0.138115 0.261377 255 0 0
0.083621 0.000827 0.224886 255 0 0
0.259513 0.152284 0.042075 255 0 0
0.236090 0.134953 -0.056419 255 0 0
0.160968 0.059045 0.200989 255 0 0
0.111380 -0.165435 0.193516 255 0 0
0.012429 0.336722 0.118851 255 0 0
0.192987 -0.097385 -0.096532 255 0 0
-0.000962 0.325340 0.141723 255 0 0
-0.076602 -0.148149 -0.203782 255 0 0
-0.014481 -0.235067 -0.226568 255 0 0
0.047376 0.075064 -0.291671 255 0 0
0.186595 -0.158456 -0.021581 255 0 0
-0.175961 0.242635 0.171446 255 0 0
0.060603 0.309843 -0.239213 255 0 0
0.075113 -0.277713 0.150027 255 0 0
0.133872 0.340846 -0.009241 255 0 0
-0.269496 0.123109 -0.076417 255 0 0
-0.204824 0.188320 -0.221971 255 0 0
0.109849 0.324555 0.106085 255 0 0
0.083716 0.000204 -0.247083 255 0 0
-0.208370 0.144159 0.112923 255 0 0
0.146390 -0.181911 -0.045765 255 0 0
-0.221843 0.319776 0.001651 255 0 0
-0.185199 0.344452 0.076327 255 0 0
0.139939 -0.173603 0.181305 255 0 0
-0.053520 0.166602 0.198207 255 0 0
0.065096 -0.179254 -0.245229 255 0 0
-0.106574 0.341706 0.113255 255 0 0
0.242661 0.003489 0.050252 255 0 0
0.195170 -0.053475 -0.149557 255 0 0
0.053788 -0.036111 -0.239219 255 0 0
0.108951 0.226396 -0.259490 255 0 0
-0.148528 -0.071881 -0.198302 255 0 0
0.252064 -0.039616 -0.063141 255 0 0
0.251701 -0.037035 -0.070266 255 0 0
-0.026369 0.320385 -0.212163 255 0 0
0.112200 -0.288894 -0.107911 255 0 0
-0.072077 -0.099900 -0.216994 255 0 0
0.204231 0.041515 -0.181207 255 0 0
0.006456 0.381136 0.070329 255 0 0
0.113616 -0.277492 -0.055006 255 0 0
0.099564 -0.264514 0.135143 255 0 0
-0.151437 0.154707 -0.253501 255 0 0
-0.157694 -0.094564 -0.143281 255 0 0
-0.058346 -0.238701 -0.205160 255 0 0
-0.146872 -0.165724 0.045560 255 0 0
-0.002000 0.382257 0.083915 255 0 0
0.044106 0.264168 0.228291 255 0 0
0.157675 -0.088151 -0.056053 255 0 0
-0.205000 0.307059 -0.119616 255 0 0
-0.130169 -0.030665 0.223684 255 0 0
0.089271 0.373927 0.019963 255 0 0
0.091344 0.142543 0.219437 255 0 0
0.223343 -0.040139 0.072821 255 0 0
-0.251007 0.036428 -0.071087 255 0 0
-0.163842 -0.112723 -0.130032 255 0 0
0.219340 0.306542 -0.095972 255 0 0
0.186432 0.088852 0.111604 255 0 0
0.196697 -0.015014 -0.174273 255 0 0
-0.185446 0.337229 -0.136556 255 0 0
0.231779 0.256046 -0.024755 255 0 0
-0.074539 -0.042888 -0.247090 255 0 0
0.153133 -0.071003 0.212955 255 0 0
-0.031902 -0.145457 0.240141 255 0 0
0.086321 0.127331 -0.284490 255 0 0
-0.200333 -0.082164 -0.022640 255 0 0
0.197691 0.224476 0.137495 255 0 0
0.185609 0.335906 -0.030660 255 0 0
0.298002 -0.003360 -0.099189 255 0 0
-0.204971 -0.055262 -0.147102 255 0 0
-0.047950 -0.248302 0.224160 255 0 0
-0.192347 0.222545 0.032653 255 0 0
0.203790 0.155343 0.074907 255 0 0
0.247743 0.227700 -0.081974 255 0 0
0.214918 -0.091529 -0.026565 255 0 0
-0.012582 0.230046 -0.299469 255 0 0
-0.102138 0.281452 0.206368 255 0 0
-0.140989 0.350995 0.109080 255 0 0
0.142773 -0.042657 0.213777 255 0 0
0.139508 0.180478 -0.239578 255 0 0
-0.212218 0.231183 -0.191297 255 0 0
-0.001121 -0.274174 0.242950 255 0 0
-0.082261 0.158942 0.240611 255 0 0
-0.230709 0.050240 0.023735 255 0 0
0.100252 0.046053 -0.275754 255 0 0
0.089663 -0.223319 -0.032856 255 0 0
0.169242 0.070764 0.180201 255 0 0
0.126839 -0.191111 0.185122 255 0 0
-0.241027 0.292718 0.028722 255 0 0
-0.123062 0.277985 -0.251848 255 0 0
0.138523 0.324357 -0.032173 255 0 0
0.223944 0.202836 -0.185913 255 0 0
0.074724 -0.331479 -0.042729 255 0 0
-0.223744 0.280394 -0.144910 255 0 0
-0.117674 -0.192308 -0.198698 255 0 0
-0.116243 -0.334472 -0.064181 255 0 0
0.246860 0.107237 -0.138041 255 0 0
-0.132846 -0.038020 -0.230146 255 0 0
-0.049555 -0.214316 0.214623 255 0 0
0.195039 -0.137092 0.079355 255 0 0
0.024540 -0.269610 -0.197227 255 0 0
-0.021218 0.255019 0.235862 255 0 0
-0.158261 0.195130 -0.241964 255 0 0
0.144823 -0.028100 0.243330 255 0 0
-0.220198 0.009936 -0.047792 255 0 0
-0.029328 0.284135 -0.235599 255 0 0
0.231192 0.198754 -0.146357 255 0 0
-0.122852 -0.340738 -0.076490 255 0 0
-0.047866 -0.242446 -0.158214 255 0 0
-0.125098 -0.172017 -0.042137 255 0 0
-0.205596 -0.082305 -0.045571 255 0 0
0.021896 -0.176028 0.270639 255 0 0
0.164245 0.192847 -0.202845 255 0 0
0.153345 0.110658 -0.243127 255 0 0
0.125076 -0.234383 0.039871 255 0 0
-0.236579 0.087588 -0.034731 255 0 0
-0.277848 -0.012391 -0.072297 255 0 0
-0.145301 -0.163747 -0.029999 255 0 0
0.007453 -0.195866 -0.233215 255 0 0
0.187293 -0.108233 -0.094262 255 0 0
-0.191569 0.104848 -0.220836 255 0 0
-0.061212 -0.061164 0.258962 255 0 0
-0.131582 -0.302716 -0.097215 255 0 0
-0.200832 -0.122457 0.134596 255 0 0
-0.030277 0.022445 0.280828 255 0 0
0.104099 0.210719 -0.255779 255 0 0
0.086722 0.067052 0.222060 255 0 0
-0.142055 -0.332535 -0.074840 255 0 0
-0.018310 -0.154915 -0.221754 255 0 0
0.071125 -0.383478 -0.035026 255 0 0
0.248020 0.276452 -0.051544 255 0 0
-0.197048 0.071236 0.055977 255 0 0
-0.029707 0.393591 -0.074962 255 0 0
0.125590 0.313535 -0.185955 255 0 0
-0.190635 -0.027526 0.186385 255 0 0
0.058689 0.386822 0.019506 255 0 0
-0.016723 -0.280869 0.055184 255 0 0
0.188944 -0.047049 -0.009607 255 0 0
-0.068431 -0.003497 -0.240756 255 0 0
0.226605 0.275763 -0.135315 255 0 0
-0.016208 0.312651 -0.187121 255 0 0
-0.118994 0.144135 0.247436 255 0 0
-0.054767 0.120757 -0.301868 255 0 0
-0.222411 0.027199 -0.168902 255 0 0
-0.059030 0.269046 0.202300 255 0 0
-0.048101 0.185000 -0.313518 255 0 0
0.097630 -0.252753 0.173074 255 0 0
-0.069716 0.058241 0.216370 255 0 0
0.071064 0.046883 0.211326 255 0 0
-0.061096 -0.117230 -0.161780 255 0 0
0.144060 -0.288287 -0.118824 255 0 0
0.060194 0.381811 -0.050521 255 0 0
-0.092939 -0.193105 0.187361 255 0 0
0.109821 -0.320553 -0.079482 255 0 0
-0.017058 0.188149 -0.310329 255 0 0
0.041035 0.383945 -0.003629 255 0 0
0.209849 0.311086 -0.064211 255 0 0
0.121385 -0.362224 -0.074266 255 0 0
-0.097919 -0.176107 0.036164 255 0 0
0.220390 0.202754 -0.146413 255 0 0
0.028698 0.133245 -0.290095 255 0 0
-0.098714 0.262013 0.186483 255 0 0
0.049433 -0.355727 -0.040448 255 0 0
-0.067631 0.243163 -0.249877 255 0 0
-0.241101 0.200031 -0.021630 255 0 0
0.119741 0.004311 0.190836 255 0 0
0.200769 0.037887 -0.174857 255 0 0
0.048308 0.020889 -0.256891 255 0 0
-0.126901 -0.134946 -0.162425 255 0 0
0.038451 0.225515 -0.292768 255 0 0
0.258560 0.197040 -0.065200 255 0 0
-0.020311 0.386478 0.061945 255 0 0
-0.014103 0.371679 0.098958 255 0 0
0.097649 -0.247117 0.049409 255 0 0
0.215398 0.077210 0.114210 255 0 0
0.297500 -0.018643 -0.083887 255 0 0
0.233301 0.042539 0.028364 255 0 0
0.090536 0.333456 0.083808 255 0 0
-0.261095 0.175469 -0.048010 255 0 0
-0.153807 -0.306542 -0.103554 255 0 0
0.033036 -0.124981 0.260921 255 0 0
-0.058207 -0.168622 -0.203492 255 0 0
-0.095469 -0.263506 0.191176 255 0 0
-0.252789 0.243929 -0.033793 255 0 0
-0.076006 0.357416 -0.146168 255 0 0
-0.190904 0.121906 0.190380 255 0 0
-0.017739 0.083910 -0.312737 255 0 0
0.227321 0.161806 -0.104338 255 0 0
-0.244217 0.246815 -0.134370 255 0 0
0.136706 0.272720 -0.216947 255 0 0
0.143242 -0.160273 -0.030160 255 0 0
0.132452 -0.018716 0.242200 255 0 0
0.217404 -0.026300 -0.149120 255 0 0
0.234857 0.220607 -0.123050 255 0 0
0.308925 0.054689 -0.100015 255 0 0
0.097361 0.020933 0.205104 255 0 0
-0.091095 -0.290798 0.158774 255 0 0
0.048934 -0.260830 -0.224993 255 0 0
-0.250382 0.187321 -0.011702 255 0 0
-0.005563 0.227291 0.223050 255 0 0
-0.199582 -0.067502 -0.048965 255 0 0
-0.108270 0.291960 -0.239240 255 0 0
0.263287 0.147010 -0.002922 255 0 0
-0.161544 -0.112033 0.116814 255 0 0
0.121365 0.340680 -0.064145 255 0 0
0.034851 -0.299682 0.170854 255 0 0
-0.123852 -0.191021 0.025911 255 0 0
0.080755 -0.162174 -0.212384 255 0 0
0.122707 -0.178800 0.200608 255 0 0
0.005165 0.238142 -0.299124 255 0 0
-0.137367 0.235369 0.191816 255 0 0
-0.103690 0.377153 0.059925 255 0 0
0.024430 0.367469 -0.168337 255 0 0
0.092170 0.178296 0.217210 255 0 0
0.052335 -0.306249 -0.159535 255 0 0
-0.041465 0.355427 -0.012261 255 0 0
0.219080 0.108369 0.080195 255 0 0
-0.189512 -0.126718 0.157565 255 0 0
0.109533 0.354017 0.012116 255 0 0
-0.141149 0.255354 -0.209267 255 0 0
-0.018038 0.237912 -0.268153 255 0 0
0.106329 -0.222644 0.198393 255 0 0
-0.019655 -0.256827 -0.154593 255 0 0
-0.246673 0.009265 -0.102534 255 0 0
0.254844 0.158119 -0.100628 255 0 0
-0.099388 0.065579 0.204375 255 0 0
0.150206 -0.158714 0.169130 255 0 0
-0.095252 0.088824 -0.273429 255 0 0
0.142238 0.116616 -0.243516 255 0 0
0.071000 0.074616 0.236813 255 0 0
-0.222680 0.294106 -0.073272 255 0 0
-0.230473 0.241702 0.058078 255 0 0
0.072502 0.040674 -0.287285 255 0 0
0.164473 -0.257463 -0.119872 255 0 0
-0.105952 -0.116609 -0.209328 255 0 0
0.156605 0.185646 0.177879 255 0 0
0.203119 -0.054918 -0.082670 255 0 0
-0.031491 -0.282570 -0.152470 255 0 0
-0.216816 -0.064324 -0.005850 255 0 0
0.102263 -0.008157 0.207342 255 0 0
0.170814 0.342536 -0.052119 255 0 0
-0.099865 -0.353704 -0.043748 255 0 0
0.172800 0.327034 0.081001 255 0 0
-0.131201 0.085090 0.213390 255 0 0
-0.159880 -0.022962 -0.224683 255 0 0
-0.247726 -0.035913 -0.067757 255 0 0
-0.229599 0.227604 -0.139836 255 0 0
-0.028108 0.167349 0.254625 255 0 0
0.154897 0.000306 0.176263 255 0 0
0.041875 -0.343315 -0.095839 255 0 0
0.191428 -0.154451 0.020284 255 0 0
-0.221379 0.168168 -0.204489 255 0 0
-0.111003 0.305221 0.188815 255 0 0
-0.065697 0.360710 -0.145278 255 0 0
-0.044130 -0.360683 -0.064423 255 0 0
0.025683 0.372482 0.071483 255 0 0
-0.067103 0.277393 -0.268476 255 0 0
0.130952 0.126059 0.215576 255 0 0
0.057594 0.300490 -0.229754 255 0 0
-0.114120 -0.215288 0.051444 255 0 0
0.257647 0.227375 0.026592 255 0 0
-0.242643 0.044897 -0.004508 255 0 0
-0.057431 0.375340 0.051807 255 0 0
0.170224 0.350407 -0.063917 255 0 0
0.207934 -0.073616 0.098549 255 0 0
0.194676 -0.120882 0.004211 255 0 0
0.136962 -0.288281 -0.065621 255 0 0
-0.221202 -0.061699 -0.042273 255 0 0
-0.199463 -0.048871 -0.144668 255 0 0
0.008253 -0.027403 0.297534 255 0 0
-0.039090 -0.137452 -0.196315 255 0 0
0.121543 -0.185810 0.145854 255 0 0
-0.057133 0.370489 0.114108 255 0 0
-0.051972 0.166422 -0.307978 255 0 0
-0.037953 0.026820 -0.294948 255 0 0
-0.219932 0.058508 -0.018054 255 0 0
-0.172182 -0.122304 0.195770 255 0 0
-0.109983 0.237149 0.209485 255 0 0
0.240623 0.016631 0.037736 255 0 0
0.165381 -0.141942 -0.068849 255 0 0
-0.095144 -0.294105 -0.111774 255 0 0
-0.077873 0.067278 0.209956 255 0 0
0.215642 -0.084047 -0.015207 255 0 0
0.233523 0.290518 -0.081450 255 0 0
-0.005469 0.383731 0.073721 255 0 0
0.209809 0.063161 -0.168842 255 0 0
0.102413 0.227586 0.192111 255 0 0
-0.244311 0.045149 -0.083968 255 0 0
0.029464 0.326160 0.186316 255 0 0
0.154930 0.020156 -0.252944 255 0 0
0.133415 -0.107833 0.162631 255 0 0
-0.240617 0.097319 0.002661 255 0 0
0.183520 0.320255 -0.063018 255 0 0
-0.050316 0.338292 -0.156610 255 0 0
-0.176328 0.268878 0.127122 255 0 0
-0.051621 -0.273258 -0.179109 255 0 0
0.140580 0.246771 -0.230816 255 0 0
-0.122942 0.343745 0.049039 255 0 0
0.067535 -0.182448 -0.228215 255 0 0
0.211613 0.286861 0.090249 255 0 0
0.127484 -0.034220 0.247504 255 0 0
0.158773 0.095700 -0.263393 255 0 0
-0.225891 -0.016081 -0.138773 255 0 0
-0.181642 -0.097647 0.027699 255 0 0
-0.063323 -0.165912 -0.248127 255 0 0
0.020609 0.240331 -0.284141 255 0 0
0.071925 -0.029415 -0.275056 255 0 0
0.085339 0.123961 -0.304033 255 0 0
0.052980 -0.255742 -0.016468 255 0 0
-0.238701 0.306819 -0.014107 255 0 0
0.029959 -0.394249 -0.002719 0 255 0
0.052913 0.103066 0.264888 0 255 0
0.180650 -0.137388 0.230124 0 255 0
0.281033 0.119114 -0.138714 0 255 0
0.347681 0.050411 -0.061410 0 255 0
0.243770 -0.023449 0.204641 0 255 0
-0.010357 -0.322955 0.186883 0 255 0
0.222171 0.255505 0.118910 0 255 0
0.144260 0.084102 -0.294095 0 255 0
0.100920 -0.279080 0.118477 0 255 0
-0.219783 0.087177 0.148737 0 255 0
0.281862 0.219704 -0.121643 0 255 0
0.215616 0.383595 -0.065515 0 255 0
0.166208 -0.015182 -0.270090 0 255 0
0.260452 -0.002475 0.020638 0 255 0
0.153398 -0.242794 0.064958 0 255 0
-0.285611 0.196526 -0.038514 0 255 0
-0.107904 -0.237751 -0.000334 0 255 0
-0.035504 0.217715 -0.315374 0 255 0
-0.021921 0.036085 0.295878 0 255 0
-0.170683 0.053900 -0.326150 0 255 0
-0.264823 0.146417 0.014731 0 255 0
-0.046233 -0.059989 -0.299233 0 255 0
-0.144572 0.219476 -0.271826 0 255 0
0.008969 0.409312 0.103751 0 255 0
0.178145 0.093164 -0.260780 0 255 0
-0.251286 -0.049758 0.085303 0 255 0
0.078777 -0.107317 -0.251277 0 255 0
0.107539 -0.266462 -0.225178 0 255 0
-0.036091 0.279645 -0.281803 0 255 0
-0.246941 -0.085677 0.200420 0 255 0
0.047984 0.340645 -0.234726 0 255 0
0.072521 -0.357078 -0.023422 0 255 0
0.212124 -0.048459 -0.227341 0 255 0
-0.275674 0.118073 -0.190581 0 255 0
0.033578 0.408986 -0.019603 0 255 0
-0.145971 -0.318154 -0.060842 0 255 0
-0.039371 -0.288790 -0.205871 0 255 0
0.094260 -0.090421 0.254274 0 255 0
-0.043226 0.362678 0.194312 0 255 0
0.272535 0.204743 -0.002231 0 255 0
-0.178648 0.178576 0.189987 0 255 0
-0.080702 -0.262061 0.019759 0 255 0
-0.112929 -0.189450 -0.238320 0 255 0
-0.206632 -0.235379 0.094295 0 255 0
-0.300177 0.154521 -0.100204 0 255 0
-0.264544 0.119483 0.108884 0 255 0
-0.211851 -0.148838 0.143590 0 255 0
-0.117519 -0.363647 0.016716 0 255 0
0.010183 0.235783 0.251307 0 255 0
0.144754 0.244921 -0.260195 0 255 0
-0.064894 -0.244215 -0.264322 0 255 0
-0.080742 0.345188 0.200114 0 255 0
0.308848 -0.015211 -0.116639 0 255 0
0.116241 -0.365409 -0.116796 0 255 0
-0.050076 -0.332336 0.160186 0 255 0
-0.217236 0.255285 -0.222948 0 255 0
0.068713 -0.300106 0.093234 0 255 0
-0.212808 -0.159242 0.107516 0 255 0
-0.134487 0.056216 0.223049 0 255 0
0.213829 -0.176574 -0.153038 0 255 0
0.097230 0.154074 -0.313683 0 255 0
-0.237439 0.167735 0.087888 0 255 0
0.067254 0.289924 0.224277 0 255 0
0.307652 0.162605 0.034795 0 255 0
-0.105520 0.399036 -0.006968 0 255 0
-0.138595 0.161508 -0.308619 0 255 0
0.155121 0.143368 0.225092 0 255 0
0.047019 -0.263195 -0.269257 0 255 0
-0.015320 -0.191896 -0.325875 0 255 0
-0.278482 -0.024710 0.036014 0 255 0
-0.119181 -0.235686 0.227242 0 255 0
0.063505 -0.407487 -0.070025 0 255 0
-0.140331 0.092183 -0.296572 0 255 0
-0.094785 0.373410 -0.172664 0 255 0
-0.058889 -0.390601 -0.051248 0 255 0
0.054559 -0.331254 0.119971 0 255 0
0.110270 0.064089 0.227759 0 255 0
0.254458 0.232345 -0.147426 0 255 0
0.025372 0.305225 0.254973 0 255 0
0.276972 0.189628 -0.043863 0 255 0
0.164527 -0.108901 -0.202162 0 255 0
-0.283898 0.067201 -0.096269 0 255 0
0.068934 -0.126491 -0.278506 0 255 0
0.180059 0.114596 -0.290236 0 255 0
0.248911 0.177704 0.104888 0 255 0
-0.128531 0.084192 0.251804 0 255 0
0.297763 -0.050447 -0.053204 0 255 0
0.211374 0.208941 0.190773 0 255 0
-0.141988 -0.076696 -0.214378 0 255 0
0.142529 0.051193 0.209612 0 255 0
-0.222899 -0.096311 0.167606 0 255 0
-0.086407 0.143718 0.285573 0 255 0
0.160925 0.304200 0.140420 0 255 0
-0.171218 -0.241167 -0.198241 0 255 0
0.113632 0.362397 0.099882 0 255 0
0.198944 -0.100660 0.207415 0 255 0
0.189860 -0.272160 -0.103831 0 255 0
-0.215524 0.223851 -0.243811 0 255 0
-0.170023 -0.049693 0.246037 0 255 0
0.045734 -0.327991 0.202224 0 255 0
-0.268458 0.202724 -0.164884 0 255 0
0.090325 0.358537 -0.204627 0 255 0
0.000910 0.392937 0.165707 0 255 0
-0.207804 -0.108885 -0.099559 0 255 0
0.032473 -0.160782 0.265261 0 255 0
-0.096067 0.277212 -0.282045 0 255 0
-0.070532 -0.221573 0.235200 0 255 0
0.132130 -0.258901 0.181452 0 255 0
0.144260 0.438702 0.003330 0 255 0
-0.038313 0.146923 -0.327655 0 255 0
0.067896 0.173892 0.290690 0 255 0
0.266066 0.234036 -0.104401 0 255 0
-0.023869 -0.169378 -0.281862 0 255 0
0.081068 -0.290353 -0.242913 0 255 0
-0.126382 0.105313 -0.345130 0 255 0
-0.289637 0.012159 -0.132059 0 255 0
0.067454 0.016624 0.250890 0 255 0
-0.214111 0.106643 0.188829 0 255 0
0.090293 -0.359084 -0.039251 0 255 0
0.035538 -0.317411 -0.256455 0 255 0
-0.194927 0.236294 0.183349 0 255 0
0.186199 0.289526 -0.213599 0 255 0
0.076742 0.289270 -0.262976 0 255 0
-0.265499 0.270579 -0.169944 0 255 0
0.297131 0.262232 -0.117309 0 255 0
0.151578 0.040049 0.230028 0 255 0
0.179613 -0.189594 -0.194919 0 255 0
-0.116284 -0.118413 0.311182 0 255 0
-0.313325 0.094967 -0.104286 0 255 0
0.252186 -0.007043 0.121410 0 255 0
-0.169178 0.264316 0.172755 0 255 0
0.316502 0.034730 -0.066500 0 255 0
-0.237679 0.026091 -0.275441 0 255 0
0.127383 0.374030 -0.145331 0 255 0
-0.177157 0.045220 -0.272289 0 255 0
-0.262147 0.135800 0.065833 0 255 0
-0.215047 -0.170969 0.044350 0 255 0
0.300449 -0.056505 -0.081562 0 255 0
0.286580 0.085175 -0.101693 0 255 0
0.152963 -0.069040 -0.217052 0 255 0
-0.021764 -0.205793 0.324970 0 255 0
-0.077614 -0.327234 -0.154981 0 255 0
0.246583 0.130080 -0.181060 0 255 0
-0.133409 0.294125 0.197015 0 255 0
-0.104763 0.328885 -0.224790 0 255 0
-0.063549 -0.338639 0.087070 0 255 0
0.179363 -0.300619 -0.134263 0 255 0
-0.149987 -0.221338 0.003553 0 255 0
-0.054915 0.252318 -0.330583 0 255 0
-0.188231 0.239555 -0.256055 0 255 0
0.175870 -0.238850 -0.116723 0 255 0
0.250261 0.108624 0.101032 0 255 0
-0.241882 0.158380 0.073821 0 255 0
-0.006656 0.227096 0.267952 0 255 0
-0.174375 0.304383 -0.202696 0 255 0
0.029764 -0.256961 0.261120 0 255 0
0.249233 -0.017453 0.029850 0 255 0
0.105680 0.193476 0.258632 0 255 0
-0.231103 -0.064552 -0.130223 0 255 0
-0.063112 -0.360199 -0.006605 0 255 0
0.218986 0.204398 0.172823 0 255 0
0.245595 -0.079023 -0.064822 0 255 0
0.130301 -0.062324 -0.236574 0 255 0
-0.037641 -0.186005 0.262143 0 255 0
0.282532 0.101644 -0.037394 0 255 0
0.056325 -0.311882 0.113124 0 255 0
0.023071 0.213347 -0.321926 0 255 0
-0.252873 -0.198319 -0.065594 0 255 0
0.218631 0.301542 0.076550 0 255 0
-0.204904 0.185372 0.165925 0 255 0
-0.222376 0.188084 -0.249013 0 255 0
0.108007 0.061583 0.295486 0 255 0
0.036288 0.404036 -0.033946 0 255 0
0.257530 -0.034804 0.087129 0 255 0
0.099615 0.379786 0.088471 0 255 0
0.294476 0.113146 -0.067285 0 255 0
0.203859 -0.169138 -0.103559 0 255 0
-0.113832 0.033503 0.260881 0 255 0
0.095411 -0.241334 0.220055 0 255 0
0.037212 0.415206 0.064128 0 255 0
0.245321 0.119333 0.105384 0 255 0
-0.029171 0.151506 -0.346602 0 255 0
0.094032 -0.232164 0.222764 0 255 0
-0.201649 0.153894 0.207141 0 255 0
-0.261185 0.141920 0.068210 0 255 0
-0.003790 -0.009064 -0.308044 0 255 0
0.303629 0.051497 -0.086966 0 255 0
-0.222068 -0.131540 0.141303 0 255 0
-0.121547 0.120569 0.254788 0 255 0
0.174937 0.356341 -0.076932 0 255 0
0.330449 0.013384 -0.079971 0 255 0
-0.163281 -0.302757 -0.101101 0 255 0
-0.212169 0.152325 0.175610 0 255 0
0.192220 -0.240581 -0.032627 0 255 0
-0.182725 0.107301 0.221646 0 255 0
0.094974 0.207177 0.257693 0 255 0
0.155634 0.369706 -0.035695 0 255 0
0.163315 0.359561 0.098642 0 255 0
-0.241533 0.093836 0.121407 0 255 0
0.215747 0.401565 0.003078 0 255 0
0.147071 -0.323081 -0.196962 0 255 0
-0.022074 -0.309212 0.144562 0 255 0
-0.011305 -0.356745 0.029689 0 255 0
-0.267491 0.209982 -0.200201 0 255 0
0.006259 -0.323394 0.202515 0 255 0
-0.092488 -0.248309 -0.270939 0 255 0
-0.145677 -0.247981 -0.016074 0 255 0
-0.229024 -0.006113 -0.148057 0 255 0
0.062387 0.364494 -0.194275 0 255 0
0.052969 0.313053 -0.251580 0 255 0
-0.074480 0.452278 -0.019741 0 255 0
0.233819 0.285074 -0.148427 0 255 0
0.298145 0.065348 -0.062120 0 255 0
0.248755 0.179183 0.112760 0 255 0
-0.075199 -0.344350 -0.113015 0 255 0
0.096771 0.365243 0.149724 0 255 0
-0.095874 -0.359292 -0.161433 0 255 0
0.091932 0.006709 0.245377 0 255 0
0.142933 0.246395 0.197815 0 255 0
0.020293 -0.319799 0.040468 0 255 0
-0.224971 0.248389 0.114427 0 255 0
-0.000103 0.412946 0.097883 0 255 0
-0.223657 0.200291 -0.228347 0 255 0
-0.286526 0.074351 -0.019248 0 255 0
0.164401 -0.263121 0.012977 0 255 0
0.125043 0.147376 0.252280 0 255 0
-0.007427 0.013821 -0.321254 0 255 0
0.124492 -0.004465 -0.331387 0 255 0
-0.229401 -0.116466 0.029924 0 255 0
-0.263809 0.222972 0.112135 0 255 0
-0.234496 -0.284278 -0.130420 0 255 0
-0.020484 0.356795 -0.209935 0 255 0
-0.233336 -0.135802 0.036504 0 255 0
0.265429 0.074877 -0.117048 0 255 0
-0.127911 0.100657 0.245325 0 255 0
-0.162838 0.386665 0.090544 0 255 0
0.177388 0.342707 0.147995 0 255 0
-0.271708 0.233963 -0.150408 0 255 0
0.144600 0.371898 -0.158780 0 255 0
-0.102857 -0.325252 -0.174344 0 255 0
0.140609 -0.113320 0.230979 0 255 0
-0.204390 -0.121996 -0.072133 0 255 0
-0.260223 0.055658 0.168734 0 255 0
-0.011546 -0.360168 0.039806 0 255 0
-0.185015 0.350538 0.141636 0 255 0
0.129649 -0.207430 -0.221674 0 255 0
0.037337 0.064808 -0.343183 0 255 0
-0.196192 -0.123895 -0.123855 0 255 0
0.098352 0.236360 0.264039 0 255 0
0.044223 -0.348328 0.087941 0 255 0
0.186160 -0.020594 0.271033 0 255 0
0.081299 0.371945 0.121894 0 255 0
-0.075432 -0.119883 -0.284593 0 255 0
-0.247808 0.301249 0.057792 0 255 0
0.081945 -0.294515 0.159728 0 255 0
0.181374 0.382610 -0.115554 0 255 0
0.013831 0.240353 -0.331527 0 255 0
0.196584 -0.234803 -0.125548 0 255 0
0.288764 0.298017 0.019083 0 255 0
-0.286424 0.048993 -0.029176 0 255 0
0.204858 -0.139164 0.218265 0 255 0
-0.128762 0.188665 -0.338775 0 255 0
0.054556 0.322216 -0.258092 0 255 0
-0.252087 0.074746 0.151658 0 255 0
0.322880 -0.067119 -0.138348 0 255 0
-0.156838 -0.232399 -0.052868 0 255 0
0.242066 -0.064698 -0.107479 0 255 0
-0.052945 0.079745 0.291828 0 255 0
0.161635 0.366498 -0.053249 0 255 0
0.319489 0.063611 -0.082085 0 255 0
-0.285814 0.042416 0.169568 0 255 0
-0.291324 -0.056863 -0.119467 0 255 0
-0.046990 0.415244 -0.146885 0 255 0
0.138862 0.204601 -0.283620 0 255 0
0.013922 0.337412 0.214005 0 255 0
0.178652 -0.029829 -0.252562 0 255 0
-0.059777 0.056118 0.267956 0 255 0
0.160568 0.291012 -0.243816 0 255 0
0.209532 0.003875 0.227825 0 255 0
0.162231 -0.295936 -0.081212 0 255 0
-0.255454 -0.038301 -0.088645 0 255 0
-0.087510 0.124939 0.277406 0 255 0
0.178992 -0.315530 -0.151825 0 255 0
0.170093 -0.321978 -0.097137 0 255 0
0.068714 -0.115864 0.289224 0 255 0
-0.195769 0.383142 -0.108503 0 255 0
0.280066 -0.003171 -0.002464 0 255 0
0.053024 0.058425 -0.336783 0 255 0
0.155406 -0.197276 0.181669 0 255 0
-0.255918 0.025154 0.154131 0 255 0
0.199045 0.098962 -0.243745 0 255 0
0.221746 -0.068333 -0.112964 0 255 0
0.031081 -0.139820 -0.281265 0 255 0
0.049857 0.091320 0.244641 0 255 0
0.311788 0.195045 0.071115 0 255 0
-0.062768 0.360131 0.180989 0 255 0
-0.188046 0.233647 -0.271682 0 255 0
0.012668 0.283874 0.274785 0 255 0
-0.286971 0.275892 -0.024985 0 255 0
-0.028378 -0.365504 -0.064102 0 255 0
0.260211 0.138761 -0.219691 0 255 0
-0.082614 0.371962 0.261975 0 255 0
0.282866 0.183084 -0.003730 0 255 0
-0.219154 -0.141616 -0.123401 0 255 0
0.081767 0.329359 0.168598 0 255 0
-0.131819 -0.286431 -0.228516 0 255 0
0.189785 0.021343 -0.232649 0 255 0
-0.232976 0.204788 0.187781 0 255 0
-0.170748 -0.216469 -0.054623 0 255 0
0.119754 -0.200102 -0.254988 0 255 0
0.033962 -0.006241 0.277944 0 255 0
0.075663 -0.287547 0.128610 0 255 0
0.311463 0.060163 -0.037672 0 255 0
-0.238485 0.304972 -0.160892 0 255 0
-0.198264 -0.147729 0.124967 0 255 0
0.058486 0.094866 0.259540 0 255 0
-0.030875 0.013854 0.293574 0 255 0
0.255024 0.133064 -0.162504 0 255 0
-0.137355 -0.182291 -0.197495 0 255 0
0.185381 -0.222005 0.174737 0 255 0
0.226402 0.360304 0.013318 0 255 0
-0.047925 -0.159904 0.339667 0 255 0
-0.125841 0.153225 0.263299 0 255 0
-0.089357 -0.343692 -0.114952 0 255 0
-0.286892 -0.030790 -0.053336 0 255 0
0.135179 -0.136066 -0.211686 0 255 0
0.211739 -0.172414 -0.109407 0 255 0
0.179409 0.215013 0.166392 0 255 0
-0.078259 -0.368612 -0.068717 0 255 0
0.102867 -0.162871 0.237977 0 255 0
-0.034912 0.256767 0.248851 0 255 0
0.105043 -0.278649 -0.217327 0 255 0
0.164601 -0.321571 -0.097046 0 255 0
-0.026238 -0.020715 0.319622 0 255 0
-0.290550 0.267263 0.022199 0 255 0
0.234637 0.257004 0.117717 0 255 0
-0.110542 -0.268622 0.004553 0 255 0
-0.287431 0.153652 0.007530 0 255 0
-0.024798 -0.314931 0.040793 0 255 0
0.101526 -0.278298 -0.010219 0 255 0
0.296500 -0.094964 -0.041182 0 255 0
0.244304 -0.046892 0.011506 0 255 0
0.171364 -0.237001 0.142468 0 255 0
0.236914 0.305290 0.002191 0 255 0
-0.175993 0.269462 0.211458 0 255 0
-0.163703 0.295387 0.169429 0 255 0
-0.280014 0.153242 -0.172669 0 255 0
0.066226 -0.320399 0.207186 0 255 0
-0.203799 -0.128319 -0.208068 0 255 0
-0.113145 -0.291254 0.135945 0 255 0
-0.146429 0.353616 0.169128 0 255 0
0.064977 -0.329312 -0.140574 0 255 0
-0.102162 -0.132995 0.254724 0 255 0
0.039311 -0.004015 0.313539 0 255 0
-0.006993 -0.099812 -0.254506 0 255 0
0.051839 -0.184418 0.281445 0 255 0
0.139518 -0.228321 -0.008442 0 255 0
-0.254395 -0.002509 0.048177 0 255 0
-0.114727 -0.344593 -0.036985 0 255 0
-0.061382 0.020309 0.318828 0 255 0
0.173902 -0.056172 0.240664 0 255 0
0.093852 -0.200885 0.275493 0 255 0
-0.147224 -0.313465 -0.067782 0 255 0
0.105240 -0.145798 0.228337 0 255 0
0.213983 -0.070543 0.220369 0 255 0
0.226100 -0.084749 -0.053475 0 255 0
-0.143910 -0.175149 -0.185951 0 255 0
-0.168917 0.123458 -0.347365 0 255 0
0.056059 -0.181521 0.301086 0 255 0
0.272466 0.101095 0.100960 0 255 0
-0.106352 -0.202685 -0.233229 0 255 0
-0.172847 -0.239081 0.109310 0 255 0
0.110475 -0.178804 0.215438 0 255 0
0.076087 0.131284 0.267561 0 255 0
-0.076561 0.091038 0.261667 0 255 0
0.223533 0.067405 -0.234677 0 255 0
-0.260445 0.281715 -0.056982 0 255 0
0.087468 0.403909 0.049480 0 255 0
-0.042929 0.289068 -0.269318 0 255 0
-0.076762 0.115351 -0.339418 0 255 0
0.101896 0.346354 -0.212851 0 255 0
-0.132268 -0.103512 0.257934 0 255 0
-0.149456 0.128176 -0.283336 0 255 0
-0.217939 -0.122167 0.116540 0 255 0
0.064980 0.027562 0.251751 0 255 0
-0.212066 0.248383 -0.236672 0 255 0
-0.232249 -0.138576 0.067551 0 255 0
0.306339 0.021079 -0.091925 0 255 0
-0.030069 -0.333521 0.048098 0 255 0
0.084571 -0.063366 0.314550 0 255 0
0.317240 0.085992 -0.124740 0 255 0
-0.252251 0.272802 -0.125665 0 255 0
-0.056807 0.035347 -0.317263 0 255 0
-0.152192 -0.302540 -0.164170 0 255 0
0.002083 -0.127439 -0.287932 0 255 0
0.187816 -0.225647 -0.129802 0 255 0
-0.009026 -0.174591 0.259048 0 255 0
-0.150007 0.004879 -0.268713 0 255 0
0.029831 -0.334233 0.155132 0 255 0
-0.021987 0.211756 -0.324164 0 255 0
-0.192458 -0.068460 0.239182 0 255 0
0.019053 -0.350790 0.008848 0 255 0
-0.160775 0.326658 -0.236448 0 255 0
0.157946 -0.289148 -0.197610 0 255 0
0.084735 0.373155 -0.142409 0 255 0
-0.277660 0.177111 -0.086410 0 255 0
0.248469 0.309324 -0.094434 0 255 0
0.134848 0.431835 -0.064858 0 255 0
-0.143223 0.395270 0.084000 0 255 0
0.320038 0.062359 -0.061857 0 255 0
0.198811 -0.092672 0.242044 0 255 0
0.285413 0.081627 -0.070341 0 255 0
-0.046732 -0.357648 0.051478 0 255 0
0.218588 -0.106279 0.180848 0 255 0
0.140731 0.356838 0.096555 0 255 0
-0.184370 -0.271147 -0.142330 0 255 0
-0.256629 0.277111 -0.141694 0 255 0
0.265518 0.219686 -0.116674 0 255 0
0.170809 -0.221928 -0.154929 0 255 0
0.152996 -0.232953 -0.049150 0 255 0
-0.003338 0.089069 0.283085 0 255 0
-0.035858 0.244868 0.249414 0 255 0
0.277661 -0.082307 -0.086115 0 255 0
0.149412 -0.138945 0.222542 0 255 0
0.055134 -0.229123 0.286237 0 255 0
0.270618 0.182332 -0.170433 0 255 0
0.161308 -0.009411 -0.242753 0 255 0
-0.287339 0.172839 -0.039465 0 255 0
0.028170 0.316806 -0.259765 0 255 0
0.249034 -0.085976 -0.103764 0 255 0
0.110814 0.394599 -0.093663 0 255 0
0.070924 0.371286 -0.178348 0 255 0
-0.024065 0.369847 0.143531 0 255 0
0.009712 0.004574 -0.313243 0 255 0
-0.300849 0.099045 -0.034143 0 255 0
0.211099 -0.156678 0.136908 0 255 0
-0.180797 -0.132034 0.206198 0 255 0
-0.014086 0.030850 0.329140 0 255 0
0.173857 -0.218970 -0.031685 0 255 0
0.299537 0.141376 -0.158223 0 255 0
0.164925 0.380293 0.038725 0 255 0
-0.270701 -0.052614 0.056385 0 255 0
-0.080149 -0.140989 -0.249973 0 255 0
-0.020142 -0.127042 0.342468 0 255 0
-0.263886 0.272459 -0.012121 0 255 0
-0.108632 -0.105181 -0.251799 0 255 0
0.080331 0.362942 0.163895 0 255 0
-0.240570 -0.002257 -0.047892 0 255 0
0.005982 -0.080684 0.285149 0 255 0
-0.036186 0.399495 0.072611 0 255 0
-0.054735 0.237626 0.255625 0 255 0
0.261607 0.176302 -0.168136 0 255 0
0.038215 -0.143072 0.302764 0 255 0
0.002329 -0.237328 -0.291181 0 255 0
-0.248716 -0.090516 0.224362 0 255 0
0.061100 0.396902 0.129658 0 255 0
0.017602 0.285322 -0.313724 0 255 0
0.166529 0.361180 -0.121855 0 255 0
-0.234849 0.005804 -0.040975 0 255 0
-0.033844 -0.160591 -0.271423 0 255 0
-0.136421 -0.113123 -0.212130 0 255 0
0.131436 -0.169509 -0.229465 0 255 0
0.004832 -0.173853 0.279797 0 255 0
0.130842 -0.142491 0.253237 0 255 0
0.096511 -0.175792 0.214687 0 255 0
-0.140755 -0.262440 0.126505 0 255 0
0.146808 -0.259525 -0.045137 0 255 0
-0.136610 -0.235326 0.013800 0 255 0
0.107703 -0.214819 0.207645 0 255 0
0.079585 0.084724 0.273370 0 255 0
-0.252531 -0.065932 -0.076724 0 255 0
0.242137 -0.066264 0.225103 0 255 0
0.282936 0.080117 0.067955 0 255 0
0.014671 0.344048 0.241443 0 255 0
-0.243178 0.085280 0.077812 0 255 0
-0.005761 -0.031042 -0.316839 0 255 0
-0.221837 -0.121360 0.083972 0 255 0
0.237292 0.209199 -0.213682 0 255 0
-0.003139 0.132761 0.269165 0 255 0
0.001320 -0.318181 0.048346 0 255 0
-0.254024 0.297686 0.034301 0 255 0
0.279476 0.034767 -0.032084 0 255 0
0.144040 -0.164901 -0.228234 0 255 0
0.103523 0.127053 -0.314800 0 255 0
-0.282147 0.169953 0.061793 0 255 0
0.145957 -0.145200 -0.200275 0 255 0
-0.079610 -0.035860 -0.294977 0 255 0
0.016242 0.455676 -0.093705 0 255 0
0.164018 0.109886 0.228456 0 255 0
0.189872 0.315051 0.115417 0 255 0
0.232669 0.154605 -0.201522 0 255 0
0.104685 -0.294084 0.092624 0 255 0
-0.096954 -0.297567 0.153238 0 255 0
-0.060009 -0.100369 -0.265613 0 255 0
-0.282601 -0.020818 -0.118221 0 255 0
-0.229255 0.058921 0.127786 0 255 0
0.061542 0.088470 0.256995 0 255 0
0.058210 0.314633 0.242797 0 255 0
0.184545 0.071254 -0.268213 0 255 0
-0.209802 -0.033490 -0.207036 0 255 0
0.032291 0.076548 -0.325864 0 255 0
-0.041275 -0.048395 -0.322762 0 255 0
0.223232 0.019866 0.195715 0 255 0
0.097565 0.393671 -0.006591 0 255 0
-0.142079 0.316848 -0.220674 0 255 0
-0.228198 -0.173948 0.120297 0 255 0
-0.107352 -0.277734 0.005744 0 255 0
-0.241774 -0.046864 0.086232 0 255 0
-0.245235 0.198558 0.114062 0 255 0
-0.315082 0.021458 -0.081273 0 255 0
0.194975 -0.285819 -0.192061 0 255 0
0.276193 0.147617 -0.008624 0 255 0
-0.092169 0.067525 -0.315687 0 255 0
-0.058482 0.383502 -0.138850 0 255 0
0.143783 0.299633 -0.269238 0 255 0
-0.086902 0.225812 -0.329315 0 255 0
-0.282005 0.053999 0.013945 0 255 0
0.101455 0.304085 -0.273037 0 255 0
-0.086136 -0.262400 -0.275945 0 255 0
-0.092519 0.039652 -0.330315 0 255 0
-0.109321 -0.301331 -0.194183 0 255 0
0.117586 -0.347742 -0.016647 0 255 0
0.161970 -0.149998 -0.184642 0 255 0
0.092834 0.290735 0.257903 0 255 0
0.083063 0.434907 0.066267 0 255 0
-0.056353 -0.353846 -0.164587 0 255 0
0.073973 -0.231635 0.257716 0 255 0
0.210053 0.171192 0.126634 0 255 0
-0.285123 0.149451 -0.173494 0 255 0
-0.286240 -0.078240 -0.098606 0 255 0
0.122472 -0.029078 0.278353 0 255 0
0.047993 -0.031774 -0.284224 0 255 0
0.187363 0.017498 0.233300 0 255 0
-0.264180 0.366677 -0.002563 0 255 0
-0.215007 0.269446 -0.272897 0 255 0
0.162260 0.304291 -0.232433 0 255 0
-0.179654 -0.198888 0.155303 0 255 0
-0.247915 0.315185 0.054989 0 255 0
-0.262246 0.091202 0.061436 0 255 0
-0.050641 -0.075655 -0.266451 0 255 0
-0.171710 0.137093 0.248538 0 255 0
0.225754 -0.103070 -0.058988 0 255 0
-0.237976 0.323339 -0.089861 0 255 0
0.164891 0.374856 0.075936 0 255 0
0.069479 0.067591 0.282977 0 255 0
0.071703 -0.382802 -0.089559 0 255 0
-0.009579 -0.337803 0.040033 0 255 0
-0.246462 0.053266 0.109550 0 255 0
0.109973 0.150982 0.264595 0 255 0
-0.127318 0.004815 -0.272634 0 255 0
0.190585 0.305973 -0.258262 0 255 0
0.097799 0.325212 -0.222730 0 255 0
0.219136 0.252887 -0.190868 0 255 0
0.075374 -0.273931 -0.231864 0 255 0
-0.211007 0.025225 -0.220975 0 255 0
-0.127031 0.112527 -0.291467 0 255 0
0.207148 0.271160 0.165267 0 255 0
0.178658 -0.250291 0.119430 0 255 0
0.015287 -0.404219 0.028538 0 255 0
-0.131271 -0.164331 -0.276019 0 255 0
0.206056 0.174905 0.135894 0 255 0
0.016453 -0.011519 0.292678 0 255 0
-0.010790 -0.214524 0.269885 0 255 0
-0.206206 0.059045 0.194957 0 255 0
-0.163817 0.337650 -0.174071 0 255 0
0.226646 0.138278 -0.247366 0 255 0
-0.082893 0.382741 0.138123 0 255 0
0.132692 -0.309611 -0.032901 0 255 0
-0.191015 0.399604 -0.012946 0 255 0
-0.128201 0.136033 -0.347776 0 255 0
0.099596 0.034973 -0.299484 0 255 0
-0.044989 -0.128202 0.310630 0 255 0
0.112745 -0.183948 0.214366 0 255 0
0.024608 -0.326584 0.114094 0 255 0
-0.188301 -0.144131 -0.091665 0 255 0
-0.062560 0.077229 0.238604 0 255 0
0.287515 0.093111 0.006707 0 255 0
0.083488 -0.166835 0.289664 0 255 0
0.036926 0.253000 0.259401 0 255 0
0.089419 -0.125113 -0.271748 0 255 0
-0.218268 0.043615 0.214844 0 255 0
-0.307161 0.072092 -0.058808 0 255 0
-0.155028 -0.223722 0.191976 0 255 0
-0.303130 0.102493 -0.093010 0 255 0
-0.051485 -0.109542 -0.280022 0 255 0
-0.193596 -0.088370 -0.153707 0 255 0
0.177526 0.327778 0.138820 0 255 0
-0.031294 -0.213976 -0.278461 0 255 0
-0.114196 -0.292896 0.176965 0 255 0
0.313346 0.028911 -0.126532 0 255 0
-0.032482 -0.338689 -0.129046 0 255 0
0.181605 -0.123015 -0.172128 0 255 0
0.136463 0.317139 -0.207447 0 255 0
0.122092 0.156024 0.231984 0 255 0
0.218907 -0.124719 -0.088875 0 255 0
0.078894 0.426533 -0.002052 0 255 0
-0.005257 0.422416 0.005840 0 255 0
-0.072006 -0.393362 -0.020528 0 255 0
-0.275931 0.296946 0.099033 0 255 0
0.271286 0.316646 0.008644 0 255 0
0.205201 -0.290574 0.113253 0 255 0
0.286221 -0.038526 -0.130330 0 255 0
-0.106629 -0.150887 -0.230025 0 255 0
0.176406 -0.208443 -0.174854 0 255 0
0.029790 -0.322849 0.220478 0 255 0
0.056447 -0.277127 0.085134 0 255 0
0.012675 0.135582 -0.332190 0 255 0
0.300951 0.086760 -0.059909 0 255 0
0.243785 -0.123398 0.002253 0 255 0
0.273500 -0.054805 0.104063 0 255 0
-0.075416 -0.076672 -0.276169 0 255 0
0.233710 0.333187 -0.064843 0 255 0
0.170334 0.227752 0.183807 0 255 0
0.222145 -0.100702 0.205968 0 255 0
-0.173926 0.252284 0.197731 0 255 0
-0.296575 0.094999 -0.124042 0 255 0
0.230073 0.322407 -0.138775 0 255 0
-0.254903 -0.003394 -0.152086 0 255 0
-0.232393 0.155636 -0.248174 0 255 0
-0.046958 0.365756 0.183742 0 255 0
-0.208173 -0.195657 0.033148 0 255 0
-0.087176 -0.102333 0.276820 0 255 0
0.173446 0.238001 0.186070 0 255 0
-0.201610 0.093631 0.215379 0 255 0
0.217531 -0.221490 0.058974 0 255 0
-0.221550 0.353088 -0.062658 0 255 0
0.204302 0.100591 0.203822 0 255 0
0.073889 0.292150 0.213082 0 255 0
-0.080351 -0.159152 -0.261887 0 255 0
-0.226726 0.116095 0.177147 0 255 0
0.233195 0.263115 -0.181605 0 255 0
0.021419 -0.121672 -0.270191 0 255 0
0.126597 0.289819 0.200697 0 255 0
-0.061656 -0.025114 -0.290613 0 255 0
0.238236 0.047986 0.168966 0 255 0
0.114766 0.024592 0.241096 0 255 0
0.281142 -0.071888 -0.087557 0 255 0
-0.125703 0.039295 0.231314 0 255 0
-0.071770 -0.367586 0.121472 0 255 0
-0.263494 0.231592 0.038867 0 255 0
0.304133 0.117194 0.008435 0 255 0
0.165911 -0.069537 -0.200942 0 255 0
0.193524 0.255209 0.208375 0 255 0
0.188747 -0.166063 -0.067291 0 255 0
-0.250035 -0.018455 -0.147968 0 255 0
0.166013 -0.124086 0.209002 0 255 0
0.174323 -0.256391 -0.224862 0 255 0
0.279889 0.190348 0.026941 0 255 0
0.127196 0.391768 0.013323 0 255 0
0.282231 -0.031615 0.002489 0 255 0
-0.286351 0.100600 -0.136859 0 255 0
0.024315 0.003041 0.309507 0 255 0
-0.158074 0.381719 -0.125756 0 255 0
-0.268824 0.095575 0.012814 0 255 0
0.207394 0.109201 0.195785 0 255 0
0.017076 0.336860 -0.231543 0 255 0
-0.017543 -0.184336 0.327011 0 255 0
0.094647 0.326682 -0.228492 0 255 0
0.076528 -0.278171 -0.223684 0 255 0
0.035417 -0.127705 0.278466 0 255 0
0.086419 -0.275688 -0.251166 0 255 0
-0.117270 -0.267205 0.176591 0 255 0
-0.076595 0.022002 0.309151 0 255 0
0.257018 0.244094 -0.142712 0 255 0
-0.061867 -0.091894 0.296879 0 255 0
-0.062015 0.190191 -0.315325 0 255 0
0.132100 -0.202673 0.200146 0 255 0
0.149086 0.299941 -0.264094 0 255 0
-0.121005 0.402372 0.119415 0 255 0
-0.040880 0.235152 -0.327821 0 255 0
0.272475 0.082695 -0.079633 0 255 0
0.021650 0.174043 -0.320759 0 255 0
-0.150851 -0.002543 -0.252957 0 255 0
-0.205092 0.187312 -0.251908 0 255 0
0.250728 0.011772 0.134110 0 255 0
0.289781 0.103069 0.022256 0 255 0
-0.094714 0.211930 -0.297146 0 255 0
-0.246940 0.025827 0.091469 0 255 0
-0.184117 0.349153 -0.116487 0 255 0
0.021075 -0.125827 0.291688 0 255 0
0.281430 0.217973 -0.125987 0 255 0
-0.067433 0.115335 0.264501 0 255 0
-0.007049 0.431106 -0.066862 0 255 0
0.051413 -0.077928 -0.272321 0 255 0
-0.241492 0.036848 -0.232925 0 255 0
0.037887 -0.181726 0.312686 0 255 0
0.015986 0.404150 -0.037782 0 255 0
-0.070905 -0.305837 -0.150945 0 255 0
0.326254 0.041366 -0.099256 0 255 0
0.161864 -0.245344 -0.061539 0 255 0
-0.186729 -0.018181 0.229556 0 255 0
-0.065854 0.379286 -0.194516 0 255 0
-0.100901 0.370414 0.143691 0 255 0
-0.117012 -0.217277 -0.263255 0 255 0
-0.223935 -0.010142 0.201403 0 255 0
0.166725 -0.162495 0.197771 0 255 0
-0.249519 -0.008225 0.164176 0 255 0
0.262106 0.348259 -0.054909 0 255 0
0.005269 -0.053170 0.348333 0 255 0
-0.190030 -0.141393 -0.089863 0 255 0
-0.256417 0.273673 0.017110 0 255 0
-0.007206 0.428314 0.014798 0 255 0
0.292062 0.251974 -0.125174 0 255 0
-0.096913 -0.143884 0.270486 0 255 0
-0.097248 0.403766 0.012338 0 255 0
0.087791 -0.270668 0.222971 0 255 0
-0.202058 0.102930 -0.267529 0 255 0
-0.123803 -0.242111 -0.001341 0 255 0
0.073138 -0.056327 -0.327101 0 255 0
-0.324601 0.045020 -0.146579 0 255 0
0.049439 0.374476 0.205880 0 255 0
0.074516 -0.306550 0.211318 0 255 0
0.098428 -0.371682 -0.074510 0 255 0
-0.117327 -0.363450 -0.065655 0 255 0
0.160465 0.040311 0.237721 0 255 0
-0.006703 -0.404413 -0.007917 0 255 0
-0.124995 -0.289081 0.136933 0 255 0
0.048501 0.090930 -0.320919 0 255 0
-0.114476 -0.249292 0.204811 0 255 0
0.242818 -0.089205 -0.136427 0 255 0
0.270475 0.271653 -0.007679 0 255 0
-0.022819 -0.199822 0.274982 0 255 0
0.041016 0.365502 0.170601 0 255 0
0.046494 0.327181 -0.262942 0 255 0
-0.142464 -0.230087 0.023091 0 255 0
0.143198 0.374231 -0.021977 0 255 0
-0.178648 0.178576 0.189987 0 255 0
0.065107 0.348154 -0.231890 0 255 0
-0.161949 -0.211700 -0.230486 0 255 0
0.005928 0.166286 0.276893 0 255 0
0.014294 0.006504 0.277010 0 255 0
0.247187 0.024248 -0.154784 0 255 0
-0.282542 0.143523 -0.085210 0 255 0
0.179610 -0.259115 -0.098866 0 255 0
-0.291976 0.082143 -0.032239 0 255 0
-0.036486 0.362015 -0.249162 0 255 0
-0.294347 0.172386 -0.073194 0 255 0
0.184760 0.264007 -0.273040 0 255 0
0.226170 -0.065971 -0.204050 0 255 0
0.259198 0.260853 -0.007607 0 255 0
0.256539 -0.037514 0.003987 0 255 0
-0.072432 -0.108533 -0.309531 0 255 0
0.288985 0.180383 -0.048256 0 255 0
-0.114098 0.093479 -0.369573 0 255 0
0.291122 0.133034 -0.011397 0 255 0
0.147347 -0.272748 0.040421 0 255 0
0.060865 -0.166460 0.297812 0 255 0
0.242828 0.055789 0.099438 0 255 0
0.000821 -0.150753 0.293678 0 255 0
0.052533 0.410555 -0.214632 0 255 0
0.247001 0.187305 0.093355 0 255 0
0.039911 0.151120 0.272262 0 255 0
0.001981 0.207127 -0.319309 0 255 0
0.291041 0.234428 -0.065479 0 255 0
-0.135091 0.103301 0.243592 0 255 0
0.080579 -0.299538 0.145502 0 255 0
-0.024856 -0.213129 -0.266182 0 255 0
0.218436 0.048935 -0.212041 0 255 0
-0.085717 -0.294178 0.063663 0 255 0
0.036642 -0.241617 0.254696 0 255 0
-0.067401 -0.220738 -0.285268 0 255 0
0.182104 0.152033 -0.265592 0 255 0
0.099095 -0.099488 0.263305 0 255 0
0.009829 -0.321748 -0.176859 0 255 0
0.114711 0.381231 -0.129932 0 255 0
-0.254651 0.249800 -0.182098 0 255 0
-0.063175 -0.081870 0.300002 0 255 0
-0.176951 -0.263842 -0.134286 0 255 0
-0.159142 -0.110159 -0.209475 0 255 0
-0.158063 0.006477 0.239343 0 255 0
0.247809 0.073550 -0.171646 0 255 0
-0.201490 -0.318051 -0.108835 0 255 0
0.273661 0.042641 -0.095879 0 255 0
-0.176061 -0.206105 -0.146536 0 255 0
0.078211 -0.375374 -0.062086 0 255 0
0.022243 0.314131 0.216665 0 255 0
-0.016810 0.328157 0.255244 0 255 0
0.112631 -0.241954 0.193628 0 255 0
0.304051 0.005574 -0.087271 0 255 0
-0.002820 0.055585 -0.326659 0 255 0
-0.160244 0.402306 0.074251 0 255 0
0.180130 0.333159 -0.208834 0 255 0
0.272499 0.195458 0.038223 0 255 0
-0.175861 -0.204539 -0.040176 0 255 0
-0.236451 -0.013719 0.136881 0 255 0
0.194860 -0.207031 -0.072274 0 255 0
0.284763 0.103198 -0.013819 0 255 0
-0.124030 -0.297595 -0.175234 0 255 0
-0.270044 0.016551 -0.135449 0 255 0
0.170554 -0.256483 -0.005585 0 255 0
0.139183 -0.241607 0.163532 0 255 0
-0.306672 0.102608 -0.101800 0 255 0
0.189176 -0.277962 -0.169941 0 255 0
0.299990 0.081960 -0.141241 0 255 0
0.098451 0.289631 0.205817 0 255 0
-0.156251 0.368783 0.057130 0 255 0
0.066782 0.365934 0.117614 0 255 0
-0.201139 -0.271724 -0.108557 0 255 0
0.170835 -0.118945 -0.197437 0 255 0
-0.267264 0.022485 0.178016 0 255 0
0.096416 0.386480 -0.111043 0 255 0
-0.159606 -0.212249 -0.019598 0 255 0
0.138392 0.401397 0.027631 0 255 0
-0.105061 0.264894 -0.310685 0 255 0
0.102794 -0.265647 -0.246477 0 255 0
0.273408 0.232297 -0.172811 0 255 0
0.175247 0.373297 -0.216869 0 255 0
-0.129954 0.327619 -0.225792 0 255 0
-0.229237 0.314757 -0.130167 0 255 0
-0.060462 0.172223 0.278581 0 255 0
0.033939 0.319540 -0.271025 0 255 0
-0.156669 -0.152317 -0.189154 0 255 0
-0.294190 0.035367 -0.050648 0 255 0
0.137575 0.330916 0.130993 0 255 0
0.223786 -0.199005 0.122142 0 255 0
-0.261724 -0.021466 -0.004475 0 255 0
-0.245727 0.223018 0.107982 0 255 0
0.143206 0.098608 0.257082 0 255 0
-0.240530 -0.090215 0.138365 0 255 0
-0.190742 0.311366 -0.225541 0 255 0
-0.121967 0.087570 -0.330301 0 255 0
0.148913 0.171624 0.233621 0 255 0
-0.179189 -0.280619 -0.085915 0 255 0
0.214706 0.269901 -0.206616 0 255 0
-0.162126 0.101982 -0.319691 0 255 0
-0.073017 -0.093523 0.270727 0 255 0
-0.307065 -0.008910 -0.136155 0 255 0
0.250167 0.009395 0.060682 0 255 0
0.129835 -0.261656 0.194569 0 255 0
0.057885 -0.002888 -0.299398 0 255 0
0.063814 0.280375 0.236127 0 255 0
0.304527 0.060114 -0.123921 0 255 0
0.165268 0.362371 0.052785 0 255 0
-0.116083 -0.311364 0.102156 0 255 0
0.145112 0.377082 0.079115 0 255 0
-0.045081 -0.300324 0.243311 0 255 0
-0.065436 -0.166371 0.271371 0 255 0
0.232419 -0.176613 0.109526 0 255 0
-0.083351 -0.100752 0.266689 0 255 0
0.178779 0.129013 -0.308626 0 255 0
0.199668 -0.066976 -0.199931 0 255 0
0.149922 -0.320006 -0.142663 0 255 0
0.086650 -0.101915 -0.243068 0 255 0
0.280030 0.214656 -0.102509 0 255 0
0.309822 0.209735 -0.136095 0 255 0
-0.185518 0.366537 0.034784 0 255 0
-0.175261 0.248582 -0.261234 0 255 0
-0.164797 -0.218394 -0.003113 0 255 0
0.213854 -0.080519 -0.177703 0 255 0
-0.250198 0.197966 -0.200577 0 255 0
0.294321 0.013869 -0.043559 0 255 0
-0.185368 0.344836 0.142262 0 255 0
-0.029399 -0.068293 -0.273962 0 255 0
0.046349 -0.258816 0.253827 0 255 0
0.256319 0.277398 -0.081646 0 255 0
-0.268410 0.125026 -0.003913 0 255 0
0.238874 -0.073883 -0.183816 0 255 0
-0.110832 -0.272158 0.179515 0 255 0
0.195752 0.014205 -0.226442 0 255 0
0.085610 -0.390007 -0.010698 0 255 0
-0.218056 0.135645 0.146548 0 255 0
0.303081 0.106716 -0.070140 0 255 0
0.270799 0.039453 0.074429 0 255 0
-0.123705 0.357538 0.184925 0 255 0
0.144771 -0.346855 -0.135335 0 255 0
0.204708 0.054038 0.183937 0 255 0
0.027018 -0.211079 -0.271218 0 255 0
-0.152896 -0.243126 -0.034437 0 255 0
-0.187421 -0.190267 -0.061419 0 255 0
0.051833 0.073588 0.244935 0 255 0
0.275779 0.234229 -0.143342 0 255 0
-0.261304 0.309267 -0.072770 0 255 0
0.064297 0.232530 -0.330868 0 255 0
0.154059 0.387298 -0.065694 0 255 0
0.108947 -0.287131 0.041980 0 255 0
0.155121 0.143368 0.225092 0 255 0
0.137517 0.260138 -0.305537 0 255 0
0.225530 0.050897 0.193533 0 255 0
0.185883 -0.247613 0.147232 0 255 0
0.048538 0.300822 0.241456 0 255 0
-0.172178 0.402718 0.027119 0 255 0
0.068381 0.073153 0.241415 0 255 0
-0.191728 0.104902 0.220504 0 255 0
-0.249902 -0.012579 0.088516 0 255 0
0.284193 0.109836 -0.011651 0 255 0
-0.015219 0.363329 0.193131 0 255 0
0.010674 0.162606 -0.343231 0 255 0
0.212490 0.006899 -0.255510 0 255 0
-0.036323 -0.375147 -0.078713 0 255 0
